ncols         146
nrows         162
xllcorner     40.2715223963
yllcorner     0.064494146579
cellsize      0.00083333333333335
NODATA_value  -9999
127 126 126 125 126 126 125 126 126 125 124 127 127 126 126 127 127 124 124 125 125 127 126 124 124 124 123 122 122 122 123 122 123 122 125 123 123 121 121 122 123 126 124 120 121 121 121 122 122 124 122 122 121 123 122 124 122 121 121 121 120 121 122 119 120 121 121 120 121 121 122 124 120 119 119 122 123 122 120 121 123 122 122 122 122 123 122 121 122 122 121 121 121 122 120 119 122 122 122 122 120 120 120 120 120 123 121 120 122 119 119 119 121 120 122 121 121 120 120 120 119 122 121 121 121 120 122 121 120 122 120 119 120 121 121 119 118 119 118 119 119 120 119 120 118 119
125 126 126 126 127 126 124 124 125 126 126 127 127 128 127 127 125 124 125 125 125 125 125 126 126 125 122 124 123 121 123 123 123 123 124 122 121 121 120 123 123 124 122 122 122 121 123 123 123 123 123 122 123 123 122 123 122 121 121 121 122 123 122 121 121 121 120 120 122 121 121 122 121 121 121 122 119 122 120 122 121 121 123 122 121 121 121 122 121 122 122 120 122 122 121 121 121 121 121 122 121 121 121 121 121 121 120 120 121 120 120 120 121 121 120 121 120 120 120 121 119 120 122 119 119 121 120 120 122 121 120 120 120 120 121 120 119 118 120 120 120 120 119 121 120 119
126 125 126 125 124 126 125 125 125 126 126 128 126 126 127 126 127 126 125 124 125 124 126 126 125 124 124 123 123 121 122 124 122 123 123 122 122 123 122 123 124 123 122 125 121 122 124 122 120 122 123 121 121 124 122 121 123 120 121 123 124 121 121 122 121 120 122 121 122 122 122 121 120 121 121 120 122 121 121 121 120 121 119 120 120 122 121 120 121 119 119 121 120 120 121 121 121 121 122 122 121 120 121 121 120 120 121 120 122 119 121 120 122 118 120 120 120 121 120 119 120 120 120 121 120 120 121 120 120 121 120 121 121 121 119 119 121 120 119 119 119 120 120 119 120 119
124 126 126 125 125 125 125 126 126 126 126 127 127 126 127 127 127 126 125 126 125 125 125 125 123 122 123 122 125 123 125 120 122 123 124 124 124 124 123 124 127 124 123 123 122 123 123 122 123 123 122 121 122 122 122 122 124 119 123 122 122 121 121 122 122 121 121 122 122 122 122 121 122 119 121 121 123 123 122 120 121 120 120 120 120 120 121 121 119 120 118 118 120 120 120 121 122 121 122 120 121 119 118 120 120 120 120 120 120 120 120 121 120 120 122 121 120 122 123 121 121 121 121 121 120 119 121 120 119 121 119 119 119 121 119 120 121 120 120 119 120 120 120 118 119 119
126 126 126 125 125 125 126 126 125 126 125 125 126 127 129 126 126 124 125 126 125 125 126 125 124 123 123 124 123 119 121 120 121 123 123 122 124 123 124 122 123 122 123 125 122 123 122 123 122 122 122 123 123 122 122 124 122 119 122 121 120 119 120 120 120 120 120 121 122 122 123 121 121 119 121 123 118 119 122 121 121 121 122 120 120 120 120 120 118 119 119 119 118 119 120 123 124 122 121 121 121 119 117 120 118 119 121 120 119 121 121 121 120 120 120 119 120 120 122 121 121 120 122 119 119 120 119 120 118 119 118 118 119 120 118 119 119 118 119 118 120 120 120 119 118 119
126 126 125 124 126 126 125 126 126 125 125 125 126 127 128 127 127 126 127 126 126 125 125 124 125 125 125 123 122 122 122 125 124 122 121 122 123 123 122 120 122 123 123 123 125 121 123 123 122 121 122 121 122 122 121 123 121 117 122 122 122 121 120 120 121 121 122 121 120 120 121 119 121 121 120 120 120 121 121 121 119 117 119 118 119 117 121 119 118 120 119 120 119 118 120 122 123 121 120 121 120 121 117 120 119 119 121 120 120 121 119 118 119 119 120 118 119 119 120 121 120 121 121 120 121 121 120 122 121 119 120 118 119 119 120 121 119 119 119 119 118 119 119 119 119 119
125 124 125 125 126 125 126 126 126 126 125 126 126 126 127 127 127 127 126 127 126 126 125 126 126 126 126 124 124 123 123 124 122 123 124 124 126 123 122 121 121 124 122 124 121 123 122 124 123 121 123 122 121 120 120 123 120 121 122 123 121 122 122 121 120 118 120 120 122 122 123 121 120 119 120 118 121 119 119 120 118 116 117 119 118 120 121 119 117 116 118 117 116 116 122 122 122 121 121 121 122 122 120 119 120 119 118 120 121 121 119 118 118 116 119 119 119 119 121 121 120 121 120 120 121 120 120 118 120 120 119 119 119 119 120 121 119 118 120 118 118 119 119 118 118 118
124 125 125 125 126 126 125 124 125 125 125 125 126 127 127 126 126 125 125 127 127 126 125 124 127 125 125 125 124 123 124 124 124 123 123 122 125 123 123 124 122 123 121 122 122 120 121 125 125 122 124 124 123 121 122 124 121 121 122 122 121 122 122 121 120 120 120 120 120 121 122 121 122 118 120 120 119 118 120 120 120 117 116 119 120 119 119 119 118 117 118 116 119 119 119 121 120 121 124 122 121 119 121 118 120 119 120 120 119 118 119 119 117 119 120 117 118 119 119 121 119 120 120 120 120 121 118 117 119 117 119 120 119 119 119 119 120 120 119 116 116 118 116 118 118 118
125 125 125 125 126 125 126 125 125 126 125 125 126 125 124 124 124 125 125 126 127 126 125 125 127 125 125 126 124 125 123 123 120 123 123 123 127 124 122 121 121 122 122 122 122 122 122 122 123 123 123 122 121 121 120 123 122 121 121 122 123 122 121 120 122 120 119 120 121 121 119 119 120 117 120 121 121 119 120 120 122 121 118 117 121 119 116 120 119 121 118 118 119 121 118 120 120 120 121 120 120 118 119 120 120 117 120 120 119 118 119 117 118 120 121 118 118 119 118 119 119 119 120 120 119 119 116 117 118 115 118 119 117 117 118 120 119 119 120 118 116 118 118 118 118 119
127 126 126 127 126 125 127 122 124 126 126 126 126 126 123 125 125 127 126 126 127 126 126 125 126 125 125 126 125 125 123 125 121 123 122 123 125 122 124 123 122 121 123 123 123 121 123 123 123 122 122 122 124 122 122 123 121 122 121 122 123 122 122 121 120 122 123 121 120 121 120 122 119 122 122 121 121 121 121 121 120 120 120 119 122 122 122 119 119 120 119 118 115 119 120 119 120 120 119 119 119 118 120 119 119 120 121 121 119 118 119 118 120 120 120 117 115 118 119 118 118 119 118 119 117 116 117 117 118 115 118 116 116 118 118 120 120 118 118 118 116 119 118 118 119 118
126 127 125 125 122 126 127 125 125 125 125 126 127 125 126 126 127 127 124 125 126 127 125 125 126 125 126 126 128 127 123 124 122 123 122 121 121 122 121 125 123 125 124 124 123 123 122 121 123 120 120 122 123 122 123 122 122 122 122 122 122 121 122 122 120 122 122 121 119 121 122 121 121 120 122 120 120 121 121 121 121 122 120 120 121 120 120 119 120 118 117 117 119 119 119 119 119 119 118 118 119 118 119 121 120 119 120 121 119 120 120 120 115 116 116 115 115 118 117 117 121 119 116 116 118 116 114 118 117 113 116 117 116 117 117 118 119 117 117 118 119 118 118 117 117 119
125 125 127 126 125 127 126 127 128 125 125 125 127 125 126 125 127 127 125 126 124 126 125 125 125 125 125 125 126 126 124 124 125 124 122 122 124 122 122 122 124 121 121 122 122 123 123 119 121 121 122 123 121 122 123 122 122 123 122 121 122 122 122 121 120 121 123 122 120 119 122 121 119 118 119 120 123 123 123 123 123 121 122 121 120 120 122 119 120 119 121 119 119 120 122 118 118 117 116 118 117 118 121 123 120 119 119 119 118 118 119 119 118 118 118 118 118 117 118 116 119 118 115 117 117 115 116 116 117 117 117 116 117 116 119 117 118 117 118 119 120 118 116 118 117 119
125 126 126 126 126 127 124 125 125 125 126 126 127 125 125 126 127 126 127 128 127 126 126 124 125 126 125 124 124 126 126 127 127 123 123 122 123 123 121 123 123 121 125 123 121 123 125 121 121 122 124 125 122 123 121 120 122 122 123 121 121 120 121 121 120 121 122 121 122 122 121 123 122 120 118 121 122 121 124 121 122 121 122 121 121 121 120 121 121 120 119 119 121 121 120 118 117 119 119 119 118 118 119 121 120 119 118 119 118 119 120 120 119 117 119 120 117 118 117 117 115 117 118 118 118 118 117 116 117 119 120 119 117 114 118 116 120 120 117 119 118 117 117 118 116 117
125 127 127 126 126 125 125 126 124 126 127 126 127 125 125 126 125 126 127 128 128 126 126 124 125 125 126 124 125 126 126 126 125 124 125 123 123 122 122 122 121 121 123 122 123 121 122 123 121 121 123 126 126 123 122 120 123 122 122 121 122 123 123 122 122 122 120 123 123 123 122 122 121 122 120 118 119 121 122 121 119 118 120 121 121 121 120 121 119 121 121 120 121 120 120 117 116 119 120 118 115 118 116 121 118 119 118 119 119 119 118 119 120 120 121 119 118 120 120 121 116 116 119 119 116 117 117 117 117 118 120 119 118 115 117 118 119 118 118 118 119 118 118 118 119 118
126 127 127 126 126 126 124 124 125 124 123 125 128 125 125 125 126 125 126 128 127 125 125 126 125 125 125 123 125 125 126 125 125 125 124 121 122 123 122 122 122 121 123 124 122 121 123 123 122 121 123 123 123 123 121 122 122 122 121 120 124 123 123 124 122 121 121 122 122 123 120 121 121 121 119 118 120 122 118 121 121 121 119 121 121 120 118 120 120 120 121 119 119 120 122 120 120 119 121 122 122 120 116 118 118 120 120 119 119 118 118 117 119 119 118 117 118 119 118 120 118 116 117 118 119 121 119 116 117 118 118 118 118 118 116 118 117 115 118 117 118 120 118 117 117 119
127 127 126 124 122 125 126 126 124 124 123 124 126 125 125 125 126 125 126 125 125 125 125 125 125 125 124 124 125 125 126 127 125 127 124 124 123 123 120 123 122 122 121 121 121 122 121 122 122 124 121 123 121 123 123 120 121 123 121 118 121 124 124 122 122 121 121 121 122 123 121 121 121 121 121 121 118 122 120 119 119 119 121 122 122 121 120 120 119 121 122 119 121 119 120 120 120 119 119 121 122 117 115 119 118 117 120 118 119 120 119 118 117 116 117 116 117 116 118 119 119 119 117 117 118 120 119 119 118 119 118 116 113 118 118 118 115 115 115 117 117 117 118 118 116 116
126 125 125 125 124 126 129 127 123 124 125 126 126 127 126 126 125 127 125 125 124 124 124 126 125 126 126 127 125 125 124 125 125 126 122 122 122 123 123 123 124 123 122 122 121 125 122 122 120 122 122 123 120 122 123 121 120 122 121 120 122 123 121 121 121 123 123 122 122 123 121 121 121 120 118 121 120 122 119 119 119 122 120 121 120 119 121 119 117 121 121 120 121 118 121 119 117 119 121 120 121 117 117 119 118 119 118 119 118 117 118 120 118 117 117 116 117 117 118 121 120 121 117 118 117 117 119 117 116 118 117 118 118 114 115 117 115 115 115 117 117 117 117 117 117 116
127 125 125 125 126 125 124 125 125 124 125 125 125 125 125 125 124 125 126 124 124 125 125 126 125 125 123 124 121 123 123 121 123 127 126 123 124 123 124 123 121 122 123 122 123 123 122 121 119 122 124 124 122 123 121 124 122 122 122 121 120 122 122 120 123 123 124 121 119 119 121 119 120 121 119 121 122 121 120 119 120 119 120 122 122 119 123 122 118 122 119 117 121 119 118 119 117 119 119 119 120 118 120 120 119 120 120 119 119 119 120 118 118 119 120 118 119 119 120 122 122 120 118 118 116 116 115 120 120 119 118 117 118 115 117 117 116 118 117 116 116 115 117 116 117 118
126 125 127 126 125 126 123 125 123 123 126 124 125 125 126 126 126 125 125 125 124 125 125 124 123 124 125 126 121 123 125 121 120 124 124 125 121 122 123 122 124 123 123 123 123 124 123 122 121 122 121 121 120 124 122 122 121 122 121 122 121 121 123 123 121 120 122 122 123 120 122 121 121 121 122 123 121 120 119 119 122 119 119 120 119 121 121 120 120 122 120 119 121 120 118 119 119 119 119 121 121 121 121 120 119 121 119 119 118 118 118 118 119 118 118 117 120 119 119 121 121 120 120 119 118 119 119 120 120 120 118 119 118 117 117 117 116 116 115 115 116 118 116 117 115 116
123 128 128 125 127 126 124 125 121 124 126 123 125 126 126 127 127 125 125 126 126 125 124 123 122 122 124 122 124 123 125 127 124 123 123 122 122 123 122 120 120 120 122 121 122 121 122 123 125 121 120 120 119 121 123 123 123 123 122 122 122 123 122 123 122 121 122 122 119 121 121 122 121 120 120 123 122 121 122 121 119 120 119 120 120 124 122 121 120 119 120 122 121 121 118 118 120 120 120 121 121 121 121 120 119 119 119 120 122 121 120 121 119 119 118 119 120 120 118 120 120 120 120 120 119 120 118 120 119 119 118 120 120 120 118 116 117 119 115 117 116 116 118 118 117 118
124 127 127 125 125 126 126 125 125 124 124 127 122 124 125 125 125 125 128 126 125 125 124 127 123 127 126 125 124 123 125 128 126 123 126 123 121 122 123 122 122 122 123 122 121 122 124 126 122 120 120 121 121 122 122 123 122 122 122 121 121 123 121 123 123 121 121 120 121 121 120 122 121 122 121 121 123 121 123 122 121 122 122 122 120 121 121 123 120 119 118 120 120 120 119 120 119 120 122 121 121 121 120 118 120 118 121 121 120 118 119 119 119 119 120 121 120 118 118 119 119 119 119 120 118 119 119 120 119 118 118 119 121 118 117 115 117 117 117 118 118 116 118 116 115 115
126 124 124 126 126 127 126 125 126 123 123 122 120 123 127 124 125 126 127 126 125 124 125 122 122 124 126 125 124 124 124 123 124 126 123 125 124 124 123 123 119 122 125 126 124 124 122 123 121 122 122 122 122 121 121 122 123 123 122 121 121 121 122 121 123 123 123 122 122 122 121 121 121 122 122 121 122 121 122 121 121 122 122 122 121 119 120 121 121 119 117 119 120 122 121 118 118 119 120 122 121 120 119 119 120 120 121 120 121 121 119 120 120 120 121 120 120 120 118 119 118 119 119 118 119 118 117 118 119 118 120 119 120 119 118 116 118 116 116 118 117 118 117 115 116 115
127 124 123 124 126 126 125 124 125 122 123 123 125 124 126 127 126 125 124 125 124 125 122 121 119 127 126 125 124 124 124 123 123 125 123 124 124 124 122 122 121 122 121 122 122 122 122 124 122 122 120 120 122 121 122 121 122 123 123 122 123 120 119 121 125 123 124 122 122 123 119 122 123 120 119 120 121 121 122 121 123 122 122 121 121 121 120 120 119 120 118 122 119 120 120 118 118 120 120 121 121 120 117 119 119 119 119 121 120 122 121 118 119 120 120 118 118 120 117 118 119 119 119 119 119 120 120 120 119 122 121 119 120 120 117 118 119 117 118 118 118 117 117 115 116 114
124 126 126 126 124 124 128 126 127 126 126 123 123 123 126 124 125 125 125 123 122 125 123 121 119 126 125 123 126 125 125 123 123 123 126 125 124 124 122 124 121 124 122 126 123 121 123 124 123 125 121 122 123 122 124 119 120 119 121 121 122 121 122 122 122 122 123 121 122 121 121 121 121 121 120 120 122 120 123 121 121 121 122 121 121 121 119 120 120 120 120 118 120 118 120 121 122 121 121 122 119 119 117 118 119 120 121 122 120 119 120 119 119 119 119 119 119 120 119 120 119 119 119 120 120 120 119 119 119 120 120 119 120 118 117 117 117 117 117 116 118 117 117 116 117 115
126 125 125 125 127 123 126 131 126 125 125 121 122 125 124 123 125 125 126 125 124 127 124 123 125 126 122 125 123 125 124 127 124 124 124 125 124 123 122 124 122 123 121 124 123 122 121 123 125 125 122 123 122 122 122 120 119 120 120 121 121 122 123 122 121 122 123 122 122 122 123 121 120 121 119 121 122 121 121 120 120 122 120 121 123 123 122 121 121 120 120 119 121 120 120 121 122 119 118 119 118 121 118 120 120 120 121 121 121 121 119 121 119 119 119 118 118 120 119 120 120 120 120 117 118 117 118 116 118 119 120 119 119 119 118 117 118 117 116 115 118 116 119 116 116 117
124 124 125 125 127 127 126 129 126 125 126 126 123 124 124 123 124 125 126 126 124 125 120 122 126 125 124 125 125 125 125 123 123 123 122 127 125 122 123 123 125 123 123 124 125 124 121 122 123 123 124 123 123 122 124 123 122 121 122 123 123 123 124 121 123 123 121 122 123 124 122 123 120 122 121 120 120 119 120 119 120 121 120 121 119 120 121 121 119 121 120 118 121 120 119 120 121 120 117 120 120 121 121 121 121 121 120 120 122 121 119 121 120 119 120 119 119 121 121 119 119 120 119 119 120 118 117 117 118 118 118 119 118 120 118 119 119 117 117 116 119 118 121 118 117 117
126 124 124 123 127 128 127 124 125 124 124 126 123 125 126 122 125 125 125 126 124 125 123 125 123 125 125 122 124 124 125 124 126 123 123 122 121 123 123 124 124 123 123 123 123 122 123 123 124 123 126 125 124 123 123 122 122 123 123 120 123 122 123 121 124 125 123 122 122 122 124 122 122 122 122 122 122 120 121 120 117 122 120 120 120 119 119 121 120 121 120 120 120 120 119 119 120 121 119 120 120 120 120 122 120 122 121 120 121 122 120 121 120 120 120 119 120 120 121 120 120 119 120 119 119 118 118 119 119 117 117 118 118 117 119 119 118 118 117 116 118 118 117 118 117 116
125 124 123 126 127 124 125 126 126 126 126 125 124 121 124 127 127 124 120 125 126 124 124 124 124 123 125 122 125 124 126 125 126 124 123 123 123 122 123 125 125 122 124 125 124 123 122 125 123 123 124 124 124 125 124 123 122 123 122 121 122 124 122 119 122 123 122 120 121 121 122 120 123 123 121 121 119 120 119 120 120 121 120 120 122 121 121 122 122 122 121 122 121 121 120 120 119 120 119 122 122 119 120 121 121 121 121 121 122 121 120 119 119 121 120 119 121 120 120 120 120 120 121 120 120 119 120 119 117 117 119 118 118 116 118 119 118 118 118 117 118 119 119 117 117 116
123 126 124 125 128 126 124 127 124 128 127 124 122 120 121 123 124 125 126 127 123 124 120 123 123 124 125 121 124 125 125 127 124 123 122 125 124 124 125 123 123 123 123 124 121 121 121 124 123 122 122 123 125 124 124 122 123 123 123 123 123 123 124 122 120 122 123 121 121 122 122 121 120 120 122 120 119 121 121 121 121 119 120 122 121 122 120 120 121 123 121 120 121 122 121 122 120 120 120 120 119 119 121 121 121 121 120 120 122 121 120 120 118 120 121 121 121 120 120 120 120 119 119 121 120 118 119 118 117 119 118 118 119 119 118 119 118 118 119 118 118 118 119 119 118 117
125 127 123 126 126 127 124 125 126 125 124 125 125 124 124 123 124 127 125 125 124 126 124 123 121 123 123 124 125 125 126 125 123 124 124 126 123 124 123 125 124 124 124 124 124 122 121 122 125 122 123 123 123 123 123 122 122 124 123 123 123 123 123 123 123 123 121 123 122 121 122 122 121 121 120 120 120 120 119 121 120 122 120 122 121 122 122 121 121 121 119 120 121 121 120 120 120 120 120 119 120 120 120 120 120 120 120 120 120 120 120 120 121 120 120 121 120 119 118 121 119 121 121 119 121 120 120 119 118 119 119 119 119 120 117 120 119 120 119 118 118 117 119 119 118 116
125 126 126 124 124 126 124 126 125 123 124 128 124 125 123 123 126 125 124 126 126 125 124 124 123 125 126 126 124 124 125 124 124 124 126 123 124 124 125 124 125 126 121 124 125 123 122 125 125 124 125 126 124 124 123 123 122 122 124 124 124 122 122 121 122 122 121 122 122 121 122 118 119 122 119 121 122 120 119 120 122 122 120 122 121 121 120 119 120 121 119 120 121 120 118 120 119 120 121 119 119 120 119 119 119 118 119 120 119 119 121 121 121 120 119 120 121 120 118 118 118 121 120 119 119 119 119 119 119 120 120 118 119 119 120 120 119 119 119 118 118 120 120 118 118 118
128 126 126 124 125 125 126 126 123 123 122 123 122 127 124 124 124 127 126 125 127 128 126 125 122 122 126 127 126 127 125 124 124 126 124 125 125 122 124 123 121 121 122 125 125 123 123 126 125 124 125 125 125 126 124 123 122 122 124 124 123 122 123 121 121 122 122 123 123 121 121 120 120 120 123 122 122 120 119 119 122 121 122 122 121 121 120 120 121 121 119 121 121 121 119 120 122 122 121 120 119 118 119 120 119 119 120 119 119 119 120 119 119 120 121 122 121 120 119 120 118 120 120 119 119 119 119 119 119 120 121 119 118 119 119 119 118 118 119 120 120 119 118 119 119 118
128 127 125 126 126 127 124 126 124 125 122 125 125 124 124 126 126 127 126 126 126 124 128 125 125 130 126 123 123 123 129 125 126 124 124 127 127 125 123 123 124 124 124 124 125 123 125 124 123 125 125 124 123 124 125 125 124 124 123 122 123 122 123 123 121 122 122 122 121 121 119 121 121 120 121 122 121 120 120 121 121 122 123 122 121 121 120 121 120 121 121 121 120 120 120 120 122 123 122 120 122 121 121 118 121 119 120 120 118 119 120 120 121 120 120 120 122 120 118 119 119 120 120 119 121 120 120 119 119 120 121 120 118 119 118 118 119 119 120 120 118 118 119 118 118 118
127 127 125 126 126 127 124 125 125 126 124 125 126 127 125 126 125 126 126 124 122 124 126 124 127 127 125 124 125 125 126 126 124 123 123 125 126 124 123 126 125 124 124 123 124 123 124 125 124 125 123 125 124 124 125 124 125 124 123 124 123 123 122 123 122 120 121 119 117 121 120 121 121 122 120 121 121 120 121 121 121 122 122 121 122 121 121 120 119 120 122 120 119 120 121 120 122 121 122 121 122 121 120 120 120 120 120 119 120 120 121 120 120 120 120 121 121 120 119 120 120 120 119 119 121 121 119 121 119 121 121 118 119 119 117 117 118 118 118 120 119 119 119 119 118 116
126 127 127 125 127 126 124 127 125 126 127 126 125 126 126 125 125 123 123 124 125 122 126 125 125 125 125 122 122 125 126 125 124 126 125 124 124 124 123 125 123 124 125 123 124 125 124 123 125 123 124 123 125 124 126 125 123 123 122 124 124 123 123 122 122 122 122 121 120 122 122 123 122 123 122 121 119 121 120 119 120 123 121 121 123 123 122 121 121 120 120 120 119 121 119 120 122 120 121 120 121 121 120 120 121 121 120 120 121 120 120 120 120 120 121 121 121 122 121 121 121 121 119 120 121 119 119 121 120 119 120 118 118 119 120 119 118 118 118 120 119 118 117 119 118 118
128 127 125 124 127 127 126 126 127 128 129 127 126 128 125 126 126 125 124 125 125 123 124 127 125 125 124 125 125 125 123 125 124 123 125 122 124 124 124 125 123 123 124 124 123 125 125 125 126 125 124 125 125 125 124 124 124 123 122 123 125 123 124 123 123 121 122 122 123 123 121 121 122 121 120 120 118 121 121 118 120 123 123 124 122 122 123 123 122 123 122 121 121 119 117 120 120 121 120 121 120 119 120 121 121 120 121 120 121 120 119 120 120 120 120 121 120 119 120 121 120 120 119 119 120 118 118 118 118 118 119 117 118 119 121 119 118 119 118 119 120 118 118 119 118 119
127 129 125 125 128 124 124 125 128 127 127 129 126 125 125 126 126 125 125 127 126 124 123 122 124 125 124 123 126 126 124 123 123 125 125 123 124 124 124 123 124 123 124 123 124 125 125 124 124 124 124 125 124 124 124 124 123 124 124 125 124 123 123 124 124 123 123 122 123 122 123 122 123 123 122 121 119 120 121 121 121 123 121 121 124 121 122 122 121 123 121 121 121 120 119 122 121 120 120 121 121 121 121 121 121 121 121 121 121 122 121 121 122 122 121 121 119 119 120 119 121 119 119 120 119 119 120 118 118 120 119 118 118 120 120 119 119 119 119 120 120 120 118 117 117 118
126 128 127 126 127 125 127 124 126 127 125 126 125 126 126 127 126 124 125 125 125 124 124 122 122 125 127 126 126 124 125 126 125 124 124 123 123 125 126 123 123 123 125 124 125 124 124 124 124 123 122 123 125 124 124 125 124 124 123 124 123 122 124 124 125 125 123 122 124 123 122 124 123 122 120 123 120 121 121 123 121 124 122 120 122 122 122 122 122 121 121 121 119 119 121 121 122 121 120 121 122 121 121 121 122 122 121 122 121 119 120 120 120 120 120 119 118 120 120 120 119 119 117 120 118 120 120 119 120 120 120 119 118 119 119 120 120 120 120 118 120 119 118 117 118 118
126 128 128 125 127 126 126 124 126 126 125 125 125 127 127 125 127 127 128 127 124 125 125 124 125 125 127 126 124 124 125 124 125 124 125 124 124 124 125 123 123 123 126 123 124 126 126 125 125 124 124 124 125 123 124 123 123 122 122 124 122 123 125 122 123 123 123 122 124 124 123 122 123 123 122 122 121 122 123 121 121 121 121 121 122 123 122 123 121 122 122 120 120 121 119 121 121 121 121 121 121 123 121 122 121 122 121 121 120 119 120 122 119 119 120 120 119 121 119 120 120 119 118 119 119 119 119 119 120 120 120 119 119 120 120 121 119 120 119 117 119 119 119 119 118 118
127 127 127 129 128 126 127 127 127 128 126 125 123 126 125 125 127 127 126 125 125 125 126 127 126 124 123 124 124 125 127 125 123 125 123 125 126 123 125 125 124 125 126 123 124 124 124 124 124 124 124 125 124 124 123 124 124 124 124 123 123 124 125 122 123 123 122 123 122 123 122 123 124 122 124 121 121 122 122 121 121 121 123 121 121 123 124 121 121 122 122 121 122 122 122 121 122 120 121 120 122 121 121 120 121 120 120 120 120 120 120 121 121 119 120 120 118 120 120 119 120 119 119 119 121 119 120 120 119 120 119 120 120 119 120 119 119 119 118 118 119 120 118 118 118 118
125 127 128 128 128 127 126 127 127 127 124 126 125 124 123 126 127 128 126 125 126 123 126 126 125 125 126 126 126 124 123 125 125 126 123 124 126 124 123 125 124 125 124 124 126 125 125 125 123 123 125 124 124 124 123 124 124 122 123 123 124 123 123 122 123 123 123 124 123 124 123 122 123 123 124 123 122 122 121 122 122 124 122 122 121 121 124 120 120 123 121 121 122 122 122 122 121 120 121 121 119 121 120 120 121 120 119 120 120 121 121 121 120 120 120 120 119 121 121 119 119 119 120 120 120 120 121 120 119 121 120 119 119 118 119 121 119 119 119 119 117 119 119 119 117 115
124 126 127 127 125 125 126 128 127 128 126 125 126 126 124 126 128 127 126 124 126 125 125 126 125 126 127 126 125 123 125 124 124 124 124 125 125 124 124 124 125 125 123 124 126 125 126 123 125 124 125 124 124 124 124 123 123 124 124 124 124 124 123 123 124 124 124 124 123 124 123 123 124 123 121 123 121 122 122 122 123 123 122 123 123 123 123 122 122 123 123 120 121 121 122 122 119 121 121 121 121 122 121 121 122 120 119 119 120 121 121 121 120 120 120 118 121 119 120 120 119 120 119 120 120 120 120 119 120 120 120 119 119 119 120 119 118 120 119 119 118 118 119 120 118 118
126 127 127 128 125 126 125 128 126 128 126 125 125 124 125 125 126 125 126 125 126 125 125 127 128 123 122 124 124 123 124 124 123 124 125 125 124 124 125 125 125 124 124 126 123 123 125 126 124 124 124 123 123 124 125 124 123 124 123 123 121 123 124 123 123 124 123 123 122 123 123 123 124 123 122 123 123 123 123 123 124 123 123 123 122 123 121 122 120 121 123 122 122 120 121 120 122 122 121 120 121 121 118 121 120 120 120 119 119 121 120 120 119 119 120 122 121 121 121 119 120 120 119 120 120 119 120 119 120 120 121 119 118 119 119 118 118 118 118 119 119 117 118 119 119 118
125 126 127 127 126 125 126 126 127 126 125 127 125 125 125 126 125 124 125 126 127 125 125 126 127 124 124 124 126 124 124 125 125 125 126 124 124 124 125 125 125 124 125 125 125 124 124 124 123 123 123 125 124 123 125 124 124 124 123 124 124 123 123 124 123 123 122 123 124 124 123 122 122 123 123 122 123 123 121 121 123 123 125 121 120 123 122 122 120 121 121 121 122 120 120 120 120 121 121 119 119 121 120 121 120 120 121 121 118 120 120 119 121 120 120 122 121 119 120 119 119 120 119 118 118 119 119 119 120 120 120 118 118 118 118 119 118 118 119 120 119 120 120 119 119 119
126 126 125 126 127 126 126 126 126 126 125 126 127 126 125 124 125 126 128 125 126 126 126 125 125 126 125 122 126 125 125 125 126 125 124 125 125 125 125 126 124 125 123 124 125 125 125 124 124 123 123 124 123 124 124 124 124 126 125 123 124 124 123 122 123 124 123 124 123 123 122 123 123 123 122 122 123 122 121 122 124 123 121 120 121 123 122 123 121 123 122 122 120 120 121 121 120 122 120 121 120 122 120 120 119 120 120 119 120 120 120 118 120 120 121 120 120 119 120 120 120 120 118 120 119 120 120 118 118 119 116 117 118 119 118 119 119 120 119 120 119 118 117 119 119 119
128 126 125 127 128 129 127 126 128 127 126 126 126 127 128 126 127 126 125 125 126 126 127 127 124 124 125 124 124 125 125 125 125 124 123 124 124 124 125 125 125 123 124 124 123 124 124 123 124 123 124 123 123 124 123 123 124 125 124 123 124 124 123 122 122 123 123 124 122 121 123 124 123 123 123 125 123 124 122 121 126 123 121 122 123 121 122 122 121 120 121 124 122 121 121 122 119 122 120 121 121 121 121 121 121 121 122 121 120 120 121 120 120 120 121 120 120 120 120 120 119 119 119 119 120 119 121 118 116 117 117 119 118 121 119 119 119 118 119 119 119 118 117 119 119 118
126 128 126 127 127 128 126 126 125 128 128 126 126 126 126 126 126 125 125 125 126 125 126 125 125 124 124 123 124 125 126 126 127 125 123 125 123 125 125 124 123 123 126 122 122 124 124 124 125 125 125 123 124 124 123 124 124 123 123 123 122 124 123 123 123 123 121 123 124 123 122 122 122 124 124 123 123 122 123 123 123 121 123 122 121 120 121 120 120 122 121 122 123 121 121 120 120 120 121 122 122 119 119 122 121 121 121 120 121 121 120 118 119 119 121 119 120 120 119 120 120 120 120 119 120 120 119 119 120 119 119 120 118 118 119 119 116 120 118 119 118 118 117 119 117 118
128 128 125 125 125 127 126 125 125 127 126 125 128 128 127 125 125 125 128 126 126 125 127 125 124 125 126 126 124 125 125 125 126 126 125 124 125 123 126 125 124 124 125 123 123 124 125 124 124 125 125 125 125 124 123 123 124 124 125 124 124 123 122 123 122 124 122 122 121 123 123 122 125 124 124 123 123 122 123 122 121 122 121 123 120 119 121 120 121 119 120 119 121 121 121 120 120 121 121 121 122 120 122 121 118 122 122 122 120 120 118 119 119 119 120 121 118 120 118 118 118 118 119 118 120 120 119 119 120 119 118 120 119 119 119 118 116 118 117 119 118 119 118 119 117 118
128 126 127 127 125 126 127 126 127 127 126 126 127 126 125 127 126 125 126 125 127 126 125 124 125 125 124 126 125 125 124 125 125 125 125 124 126 125 125 124 125 124 125 126 125 123 125 124 124 124 121 124 123 124 124 124 122 123 123 123 124 124 123 123 123 123 123 124 123 123 123 123 123 124 124 125 122 122 122 122 123 123 123 122 123 121 120 121 121 120 120 119 122 122 118 121 120 122 121 118 119 122 123 122 120 118 121 122 120 119 117 119 119 120 119 120 119 118 118 119 119 119 120 120 119 118 119 120 119 118 118 118 118 118 118 118 118 118 118 118 119 119 118 119 118 117
126 126 128 127 126 127 127 127 126 126 125 123 126 125 125 127 126 125 126 126 125 126 124 125 125 124 125 125 126 125 125 125 125 123 125 125 125 126 125 125 122 122 126 126 124 124 124 124 124 123 123 124 124 123 124 124 124 122 123 123 123 124 124 123 123 122 123 124 123 123 122 124 122 123 123 124 123 121 123 122 122 121 120 122 122 120 120 122 119 121 120 120 122 121 121 123 123 122 122 120 119 120 122 121 120 120 121 120 119 120 121 120 121 120 119 119 119 120 118 119 119 119 120 119 119 119 120 119 119 118 118 118 120 119 120 119 119 118 119 119 119 119 118 117 118 117
126 127 127 127 126 125 126 126 126 126 125 127 126 126 126 126 126 126 125 126 124 126 126 124 124 125 124 125 127 125 126 126 125 125 124 125 125 123 125 125 125 124 126 126 124 125 125 125 124 123 123 126 124 122 125 124 123 123 123 124 124 123 124 123 123 123 124 124 124 122 122 122 122 123 123 123 122 122 122 121 122 121 120 122 121 122 123 121 121 121 121 122 121 121 122 122 121 121 120 121 121 122 121 119 120 121 120 119 119 120 121 119 121 118 119 118 118 119 120 119 119 118 117 118 119 119 119 119 119 118 119 120 119 120 118 117 118 119 119 120 120 119 119 118 118 118
126 127 125 127 127 127 128 126 127 127 126 127 128 127 124 126 124 124 127 125 124 124 126 127 126 126 125 125 125 124 126 125 125 124 125 124 124 124 125 124 124 123 124 125 125 125 125 125 125 123 125 125 125 123 123 126 122 123 122 124 124 123 123 123 123 123 123 124 123 122 122 121 123 122 123 123 121 122 122 122 122 119 121 121 123 123 122 121 121 122 121 121 120 120 121 120 122 122 121 120 121 121 122 120 120 122 120 119 119 120 120 120 120 119 119 120 120 120 121 120 119 119 119 120 119 119 118 118 119 119 119 120 117 117 118 117 118 118 119 119 119 119 119 119 120 121
126 127 126 127 126 125 126 126 127 127 126 126 127 127 126 126 125 124 125 126 125 126 127 126 124 125 125 123 125 125 123 125 124 124 124 124 125 124 126 124 124 126 125 124 125 125 124 124 123 123 124 124 123 124 124 124 123 124 123 122 123 123 122 122 122 121 123 123 124 124 121 121 122 122 123 121 122 121 124 123 120 120 121 122 122 122 121 122 119 121 121 122 121 121 123 121 122 121 122 121 120 120 120 121 121 121 120 119 119 118 120 120 119 119 120 120 120 120 119 121 120 119 119 119 118 119 120 120 121 118 119 120 118 118 118 119 119 119 120 118 118 119 119 118 119 119
125 126 126 127 125 125 126 125 127 127 126 126 126 126 127 125 125 124 124 126 125 124 125 126 127 126 126 125 124 126 125 126 126 124 125 124 122 124 125 123 125 125 125 124 126 125 126 124 123 122 126 124 124 124 124 123 123 124 123 123 123 123 120 122 123 123 123 124 124 122 122 122 122 123 123 123 121 121 122 122 122 123 122 122 121 122 121 122 122 121 122 122 123 120 123 123 121 121 122 121 121 122 120 120 121 119 121 120 118 121 119 119 118 119 120 119 119 118 120 120 121 120 119 118 120 120 119 120 121 119 119 119 119 119 118 119 119 119 118 118 117 120 119 117 119 119
126 126 127 126 126 125 126 127 126 126 126 126 128 127 127 126 127 126 125 123 125 125 124 125 126 125 125 125 125 124 124 125 124 123 124 125 123 125 123 123 125 124 124 123 124 125 124 124 123 124 124 124 122 122 123 124 123 124 124 125 125 124 123 123 125 123 124 123 123 123 122 123 121 123 122 123 123 122 122 122 122 121 122 123 122 122 122 122 122 121 121 122 121 118 122 122 121 121 121 120 120 121 120 119 119 119 119 119 119 119 120 119 121 120 120 119 119 119 118 118 118 120 119 119 119 120 119 119 120 119 120 118 119 119 118 118 120 118 118 118 118 119 117 118 120 120
125 125 126 125 126 125 126 127 126 126 126 126 128 127 127 127 127 124 126 124 125 126 125 125 126 127 126 125 125 124 124 124 124 125 124 125 124 124 125 125 124 125 125 124 125 125 124 125 125 124 123 123 124 123 125 124 124 124 123 123 122 122 124 123 123 123 123 122 123 123 122 123 122 122 123 122 123 123 124 123 123 121 122 121 121 121 122 120 120 120 122 123 121 120 120 121 121 120 122 121 121 121 121 122 120 118 119 118 118 119 120 119 121 118 120 120 118 119 119 118 119 121 120 120 119 119 118 120 117 119 118 119 119 118 118 118 119 118 119 119 118 118 117 118 119 118
125 126 126 125 125 125 126 127 126 127 126 127 128 127 125 125 127 126 125 125 126 127 125 126 126 126 125 122 124 126 126 124 125 125 125 125 124 124 124 124 125 127 125 126 126 124 124 123 124 126 123 122 124 125 124 124 122 124 123 124 123 125 123 123 124 124 124 122 122 123 122 123 122 124 124 122 123 123 122 122 123 123 120 121 120 122 123 123 121 121 122 122 120 121 120 121 120 119 120 120 120 121 122 122 120 120 119 119 119 120 119 118 120 119 120 118 119 120 120 119 120 121 121 120 119 119 120 118 118 118 119 118 118 118 119 119 120 117 118 119 118 119 118 117 119 118
125 127 127 126 126 126 126 125 125 128 126 126 125 127 126 126 126 124 126 125 126 125 126 127 127 127 125 127 123 124 125 123 124 124 125 126 125 124 125 124 124 124 125 125 125 125 124 124 124 124 123 122 123 124 123 124 121 123 123 123 125 125 123 123 121 123 123 121 123 122 122 122 122 123 122 123 124 124 122 123 122 122 120 120 120 122 122 123 121 120 122 120 121 121 122 121 120 122 121 121 120 120 122 123 121 122 119 121 120 119 119 117 120 120 119 119 118 119 120 119 121 121 120 120 119 120 120 119 119 118 119 119 118 119 119 118 118 118 117 118 117 120 119 119 118 118
125 126 127 127 127 126 126 127 127 127 126 125 125 127 126 125 124 126 126 125 126 126 125 125 125 127 126 125 125 125 125 124 125 124 124 124 124 124 124 124 125 124 125 125 126 126 126 124 125 124 125 124 125 125 124 124 122 125 124 123 124 124 124 123 123 123 122 123 122 123 122 122 122 124 123 122 123 121 122 123 122 121 120 123 122 120 121 120 121 121 122 122 121 121 121 120 120 122 121 121 121 121 121 121 121 121 119 118 118 120 121 120 120 120 120 119 118 119 119 120 119 120 119 119 119 119 118 119 121 120 118 118 118 118 119 119 117 119 119 119 119 118 119 119 119 118
125 125 126 126 127 126 127 127 128 126 125 125 125 126 127 126 127 126 126 125 126 125 126 125 126 127 125 125 125 124 124 124 125 125 124 124 125 127 126 124 125 124 125 126 125 126 126 124 125 123 124 125 125 125 124 124 124 123 123 121 123 122 123 124 125 124 123 123 122 123 123 123 122 123 123 123 123 121 121 123 123 123 121 121 122 122 121 121 122 121 121 121 120 121 122 120 121 123 122 120 121 121 119 121 122 120 119 119 120 120 119 120 120 120 120 120 120 120 119 119 119 118 118 119 119 120 119 118 120 121 119 119 119 120 119 120 118 119 120 120 120 120 117 119 118 117
125 124 127 126 127 126 127 126 126 127 126 126 127 125 124 127 127 125 125 125 125 126 126 124 125 126 125 124 125 125 124 125 123 125 124 125 125 125 125 123 125 124 124 125 124 125 125 125 125 123 122 122 124 124 124 123 124 123 123 123 123 124 123 124 125 123 124 124 122 121 121 123 123 122 122 122 122 122 123 122 123 123 122 120 122 121 122 122 121 121 121 121 120 121 123 122 121 120 122 120 121 120 121 122 121 120 120 121 121 120 120 120 120 119 119 120 120 119 119 120 120 120 118 120 120 121 120 121 120 120 120 119 119 120 120 120 119 119 119 120 118 119 116 118 119 118
124 124 126 126 126 126 127 128 126 127 125 126 127 125 125 125 125 126 125 126 127 128 126 125 126 124 126 125 125 125 125 124 124 124 123 125 125 123 123 124 125 124 124 125 124 123 123 123 123 123 122 125 124 123 123 123 122 124 123 123 124 122 122 123 123 123 123 123 123 121 123 122 123 123 123 123 123 122 121 122 123 121 122 123 122 121 123 121 121 121 121 120 121 121 122 120 120 120 120 121 121 121 121 122 122 120 121 122 121 121 121 120 119 118 119 119 120 120 119 119 120 120 120 121 120 120 120 120 120 119 120 120 120 119 119 120 119 119 119 120 118 118 118 120 118 119
125 126 124 124 127 126 125 125 125 126 125 125 126 126 125 125 125 126 126 124 124 126 126 125 126 125 125 125 124 126 125 124 122 124 125 124 124 124 125 124 123 122 123 124 125 124 124 123 122 124 124 124 124 123 123 123 123 123 123 122 124 121 121 122 123 123 122 122 123 122 122 122 123 124 124 124 122 122 121 123 123 122 122 121 122 121 122 123 122 121 120 122 121 121 122 120 119 118 121 121 121 120 122 120 121 121 120 119 119 122 122 120 120 119 120 119 119 122 120 121 121 120 121 120 120 118 120 121 120 119 120 120 119 118 120 119 118 118 119 120 118 118 119 119 119 119
125 125 124 124 125 124 126 125 125 125 125 124 125 125 123 124 125 126 126 126 125 124 126 124 125 125 125 125 126 125 124 125 124 124 123 124 123 124 123 123 122 123 124 123 125 125 124 124 122 123 123 123 123 123 122 123 125 124 124 122 123 122 124 122 123 125 123 122 120 122 122 123 122 123 123 123 122 122 121 121 123 122 121 122 121 122 122 122 122 121 120 121 122 121 120 120 119 120 121 121 118 121 122 122 121 121 119 121 119 122 122 121 120 120 120 120 120 119 119 121 122 121 120 119 120 120 119 121 121 120 120 119 120 120 121 119 119 119 121 120 120 118 119 119 119 120
125 126 125 123 124 124 127 126 126 126 126 125 125 126 124 125 126 125 126 125 125 124 125 126 126 125 125 125 125 125 125 126 125 124 123 124 124 124 123 124 125 124 124 122 123 124 123 124 125 124 121 122 124 123 124 123 122 122 121 123 124 124 123 123 123 123 123 123 123 123 121 122 122 124 123 122 123 122 121 123 122 122 122 122 121 121 122 123 122 121 122 123 121 122 122 120 120 120 120 120 120 120 120 121 122 123 122 120 121 122 120 121 120 121 120 121 122 119 119 121 120 120 119 119 121 120 119 119 120 119 119 118 120 121 120 118 117 119 120 119 119 119 118 119 120 120
125 125 126 125 126 125 125 123 126 127 126 126 126 126 125 125 125 125 126 125 124 123 124 125 125 124 125 123 124 126 126 126 126 125 125 124 124 123 125 125 125 125 126 123 124 124 123 122 125 124 123 124 123 124 123 124 122 122 121 121 123 122 123 123 123 124 124 125 123 121 121 122 122 124 123 122 122 121 123 123 121 122 121 122 121 122 122 122 120 123 121 122 120 121 122 121 120 121 120 121 120 121 121 121 121 120 121 122 121 120 120 120 120 119 120 120 120 119 119 120 120 119 120 120 119 119 119 119 119 120 119 119 118 120 119 120 119 119 119 120 120 121 121 121 120 120
125 126 126 125 125 125 124 124 126 126 124 124 125 125 125 124 126 125 126 125 124 126 125 125 125 125 125 124 123 124 123 126 125 125 125 125 124 124 124 124 124 124 125 124 124 124 124 122 124 122 124 124 124 125 124 122 122 123 120 121 122 123 124 122 122 122 123 124 123 121 120 123 123 124 123 122 120 121 122 122 121 121 122 123 121 120 120 121 120 122 124 121 122 123 121 119 120 121 121 120 121 120 121 122 121 119 121 121 121 121 121 119 120 121 122 121 121 122 120 120 120 119 120 119 120 120 121 121 120 119 120 119 120 121 122 121 121 119 120 121 121 119 120 118 119 120
127 126 125 126 125 126 125 126 126 125 124 124 124 126 126 124 125 125 124 124 125 126 125 126 124 125 124 124 123 124 123 124 124 124 126 125 123 123 124 124 123 123 124 124 124 124 123 122 125 124 124 124 125 124 124 123 121 123 123 123 121 124 124 125 123 124 123 122 123 125 121 124 124 124 123 122 123 123 121 123 122 121 122 123 121 122 120 121 121 121 122 121 122 123 122 121 121 122 121 121 121 121 121 121 121 121 119 120 121 121 121 121 121 122 120 120 119 120 120 119 121 120 119 119 120 121 121 122 121 120 120 121 122 121 121 119 120 120 121 121 121 121 119 120 120 118
126 125 125 127 126 126 125 126 126 125 125 124 124 126 127 125 125 126 125 124 126 125 125 125 123 123 124 125 124 124 125 124 125 125 125 125 124 125 125 124 123 124 123 123 123 124 123 124 123 122 125 125 124 124 123 124 123 122 121 122 122 123 124 123 123 122 122 121 123 123 124 124 123 123 122 121 124 122 122 124 123 122 122 123 121 121 121 122 122 122 123 122 121 123 123 120 121 120 121 122 121 120 121 120 121 120 119 120 120 121 121 121 120 120 121 120 119 120 120 119 121 119 119 119 120 121 121 122 121 120 121 122 121 120 120 122 120 119 121 121 121 120 119 120 121 118
125 126 125 126 124 123 125 125 125 125 125 123 125 125 127 126 125 124 125 123 125 125 126 124 124 123 124 124 124 125 126 123 126 125 125 124 125 128 125 123 122 124 124 123 122 122 122 122 124 123 123 123 123 123 122 123 123 124 123 122 125 124 124 123 121 122 125 122 123 125 124 123 124 124 124 122 122 124 122 121 123 123 124 123 120 121 122 121 120 121 121 121 121 122 122 122 122 123 119 120 121 119 120 120 121 121 120 121 121 122 121 122 121 120 121 121 120 120 119 119 121 120 119 119 120 120 122 122 122 122 123 122 121 120 121 120 120 120 120 121 120 122 121 119 121 120
127 127 125 125 126 123 125 125 126 124 126 125 125 126 125 126 126 125 126 126 124 125 123 124 124 125 124 123 123 126 125 123 122 122 123 124 124 125 124 124 123 124 125 123 122 122 123 120 122 122 123 123 123 124 122 122 122 121 123 124 123 122 122 123 123 124 125 122 122 124 123 124 123 124 124 121 122 123 121 120 123 122 123 125 121 121 122 122 121 121 122 123 122 121 121 121 122 121 119 119 120 119 120 120 119 120 121 120 118 120 121 120 121 122 121 119 121 120 120 119 119 118 118 119 119 120 120 122 122 121 121 121 121 122 121 119 120 120 122 120 120 120 120 119 120 122
125 126 124 124 126 124 126 125 125 125 125 125 125 125 125 126 124 125 125 122 124 124 125 123 125 125 125 125 125 126 122 122 121 122 124 123 122 125 125 124 124 124 124 124 124 123 124 121 121 121 121 123 124 124 122 123 122 122 122 124 122 123 124 122 122 121 122 122 121 122 121 122 121 121 123 121 123 123 122 121 122 123 122 123 121 122 122 121 121 121 122 122 124 120 120 121 123 122 121 121 120 119 120 122 120 120 121 122 122 120 120 121 122 121 120 121 119 120 120 121 119 121 118 120 120 121 120 121 122 122 121 121 121 121 120 121 121 121 121 120 120 120 121 118 119 120
126 126 126 127 126 125 126 125 124 125 126 124 123 126 125 125 126 124 124 122 123 125 125 124 124 123 124 124 123 125 122 122 120 121 124 121 123 123 124 123 123 122 123 124 126 125 124 124 124 122 122 123 125 123 121 122 123 122 122 123 123 124 123 122 122 122 122 121 123 123 122 122 123 121 121 122 123 122 123 123 122 122 123 121 121 122 122 123 123 121 121 122 124 121 120 121 122 121 122 120 121 121 121 122 121 122 123 123 121 119 121 120 120 121 121 120 121 121 121 121 121 121 119 119 120 121 120 119 119 121 121 120 121 120 121 123 122 121 121 120 122 121 121 119 119 121
126 125 126 126 126 126 126 126 126 125 124 126 124 124 125 125 126 124 124 124 124 126 125 124 124 124 125 122 122 123 123 123 124 124 123 123 122 123 123 123 123 122 125 123 125 124 121 124 123 122 123 121 123 122 121 123 124 125 122 123 120 122 124 122 120 120 120 120 123 123 123 123 122 121 121 120 122 123 123 124 123 123 122 122 122 123 122 120 122 122 121 121 121 122 122 121 121 120 122 120 120 119 120 121 122 122 122 120 121 121 122 120 120 120 121 120 120 120 121 121 121 120 120 119 119 120 120 119 119 120 119 120 121 121 119 122 123 121 122 121 121 121 121 120 120 120
125 126 127 126 127 126 126 126 125 126 125 126 124 124 125 125 124 123 127 124 124 124 123 125 125 124 125 124 121 122 123 122 121 123 123 124 123 124 122 124 124 122 124 122 122 123 122 124 123 124 125 123 124 123 122 123 123 124 122 122 120 121 123 120 120 121 122 121 123 121 121 121 124 122 125 122 122 123 121 123 122 122 122 123 123 122 122 120 121 122 121 121 120 122 120 120 121 119 120 122 121 120 121 121 121 119 120 120 121 123 121 120 121 121 121 120 119 120 120 120 121 121 119 120 120 120 120 120 120 120 122 122 122 121 117 120 121 121 121 122 121 121 120 121 120 120
125 126 126 127 127 127 126 126 125 125 125 125 126 124 124 125 125 125 126 124 125 125 124 124 124 123 125 123 122 123 122 123 122 123 123 123 123 124 124 122 122 123 123 124 123 123 122 123 122 124 124 124 124 123 124 121 123 122 123 121 122 123 123 121 122 122 121 121 121 121 121 121 120 123 123 121 124 123 122 124 121 122 123 123 122 123 121 120 122 123 123 123 121 120 121 122 121 121 121 121 120 121 121 121 119 119 119 120 122 122 121 121 121 121 120 120 120 120 121 120 120 118 119 119 119 120 119 121 119 120 120 120 120 120 119 120 120 122 121 121 122 120 119 121 120 121
125 126 125 126 126 125 126 126 125 125 125 126 125 124 124 126 126 124 126 125 124 124 124 125 122 122 125 124 124 124 122 124 123 123 123 123 123 124 122 122 123 122 123 124 122 123 122 124 124 124 122 124 124 124 123 123 123 121 122 120 121 122 122 122 121 122 121 121 120 122 122 121 120 122 123 122 121 124 124 123 120 122 122 122 122 123 121 121 122 122 122 121 121 122 123 122 121 123 123 122 120 122 120 121 122 121 121 121 119 122 121 123 121 121 120 121 120 120 120 118 121 120 119 122 121 122 120 120 119 121 121 120 120 118 120 121 120 122 121 120 120 120 120 119 120 121
125 127 126 125 126 126 126 125 124 123 124 125 124 124 125 124 125 124 124 125 124 124 124 125 124 124 124 124 122 122 122 124 123 123 123 123 123 125 124 122 123 123 124 124 125 122 123 124 124 123 122 123 123 124 123 125 123 123 121 120 120 120 122 124 122 123 123 122 121 122 122 120 121 122 123 121 122 123 121 122 122 122 120 123 122 121 122 123 121 122 122 121 122 123 121 121 120 121 121 120 119 121 120 120 120 119 119 120 119 121 120 121 122 121 121 120 120 120 120 119 120 120 120 121 121 120 119 119 118 120 119 120 118 119 120 119 119 120 120 121 120 118 119 119 119 120
126 126 125 125 126 125 125 126 127 124 126 125 125 125 125 125 126 124 123 124 123 124 124 124 123 123 124 124 124 123 122 123 122 122 124 123 122 122 123 124 122 122 123 124 123 122 123 122 123 124 123 121 122 120 123 122 124 122 121 121 122 122 122 122 120 120 122 120 120 123 122 123 122 122 123 121 123 122 119 121 122 123 120 122 122 123 122 122 121 121 121 121 120 121 119 120 122 120 119 120 120 121 119 119 119 119 121 121 121 120 120 121 121 120 121 119 121 120 120 120 119 119 120 119 120 119 120 119 118 118 120 118 117 119 120 119 118 119 120 121 119 119 118 119 118 120
127 126 125 126 126 126 125 125 126 125 126 125 124 125 127 126 125 126 125 123 122 124 125 125 122 124 125 123 122 123 124 123 121 122 123 123 123 123 123 122 123 123 124 125 122 123 123 122 122 122 123 122 120 121 123 123 124 123 122 121 121 120 122 121 122 120 120 121 119 122 121 123 123 123 122 122 123 122 123 123 123 122 121 121 122 122 122 122 122 122 121 120 121 121 120 120 121 120 121 119 120 121 119 120 120 120 121 119 121 121 120 123 121 119 120 120 120 121 119 119 120 119 120 120 120 119 119 119 117 119 119 121 118 118 120 119 119 119 119 120 120 118 117 117 118 119
126 125 126 125 126 125 125 125 126 126 124 124 125 126 126 125 124 125 125 124 124 124 125 123 123 123 122 123 123 123 124 123 121 122 123 122 123 124 124 124 123 123 123 123 123 123 124 121 122 121 122 121 121 121 122 121 120 121 120 121 121 119 121 122 120 122 122 121 121 120 121 122 122 122 122 122 123 123 123 123 122 122 122 121 123 122 121 121 121 123 121 121 122 120 120 120 120 121 119 121 121 120 119 120 120 120 122 121 121 121 122 121 120 119 120 120 122 121 120 119 120 119 119 119 120 118 119 120 119 119 118 120 120 118 118 120 120 118 119 118 119 121 120 119 119 121
126 125 124 126 126 124 124 124 126 126 124 124 124 125 124 124 125 124 124 124 125 125 124 125 123 122 122 122 123 123 122 122 123 122 123 122 123 124 122 124 123 122 123 122 124 123 124 123 121 122 120 122 123 122 120 120 120 122 122 122 121 119 121 121 121 122 121 122 121 121 121 121 122 122 121 121 123 122 121 124 121 121 120 121 121 120 120 121 121 121 122 121 122 121 120 121 121 121 120 121 122 121 120 120 121 120 121 119 120 120 120 121 121 120 120 120 121 121 120 119 119 120 120 119 120 120 119 119 119 118 119 121 121 119 118 119 118 117 119 120 119 120 119 118 119 121
126 125 126 126 126 125 123 124 126 125 124 125 126 124 125 124 124 126 124 123 124 124 124 123 122 122 123 123 125 122 122 123 123 123 122 123 123 123 123 124 123 124 124 124 124 123 122 124 122 124 123 122 122 120 121 124 123 124 124 121 120 121 121 120 121 119 120 119 119 121 123 121 122 122 121 121 120 121 122 122 121 122 122 121 121 121 119 121 122 121 121 121 122 120 121 119 120 118 119 121 121 121 120 120 121 121 120 120 119 121 119 121 120 119 121 120 121 121 121 119 118 120 121 121 120 119 120 119 118 118 120 119 117 119 119 119 118 119 118 119 119 118 119 119 120 119
126 124 125 126 126 127 125 125 124 124 125 126 127 124 125 125 124 124 124 123 124 124 124 124 124 123 123 123 125 123 124 122 122 124 123 125 123 125 123 124 124 124 123 123 122 122 119 122 123 122 121 122 122 122 123 123 123 123 123 124 120 121 121 120 121 120 120 120 120 120 121 120 121 121 123 121 121 122 123 121 121 119 121 122 119 121 121 121 120 122 123 122 122 121 121 119 120 121 121 120 121 121 119 121 120 120 119 119 119 120 121 121 121 120 120 120 118 117 119 118 119 122 121 121 120 119 120 120 119 120 121 119 118 120 121 117 117 120 121 119 117 119 121 120 119 120
125 124 124 125 124 125 125 124 124 124 124 125 126 125 125 125 124 123 126 124 124 125 124 125 124 124 124 122 123 125 123 123 124 123 122 123 123 124 123 125 122 122 123 125 122 121 121 124 123 123 121 123 122 121 121 122 117 123 126 121 122 122 122 122 123 122 120 121 121 121 121 123 124 122 120 120 120 119 122 122 121 121 123 122 120 121 121 121 122 122 120 120 120 120 122 121 121 120 120 120 120 121 119 120 120 122 120 121 121 119 121 121 120 121 120 121 120 119 119 118 118 120 120 120 121 119 119 120 119 120 119 120 120 118 122 120 121 118 118 120 119 119 118 117 120 120
125 126 127 126 125 125 124 124 124 123 125 125 124 125 126 125 125 124 125 126 125 124 123 123 123 124 125 125 124 125 123 124 125 122 121 121 122 123 123 121 122 123 122 122 123 119 120 123 121 123 122 123 122 123 123 121 122 124 121 122 121 122 123 123 124 122 118 121 122 121 121 124 123 119 120 120 121 118 121 122 122 123 122 122 122 120 121 123 121 120 120 122 119 120 122 121 121 120 121 121 120 121 120 122 122 121 122 123 121 120 122 122 121 120 119 120 119 120 121 120 120 120 119 120 120 121 120 120 120 118 118 117 118 120 121 120 119 119 119 120 117 118 119 119 119 118
124 124 125 125 125 125 124 124 125 124 125 124 124 124 124 124 123 125 125 125 125 123 124 125 124 123 123 124 123 121 122 124 125 122 122 121 124 123 121 119 122 126 125 123 122 120 121 124 121 122 121 122 123 124 123 125 123 125 121 123 120 122 123 123 122 119 119 119 123 120 119 122 123 118 119 120 121 121 119 123 122 123 123 122 123 121 122 120 120 119 118 122 120 120 122 121 120 120 120 120 120 120 121 122 120 120 121 122 121 122 120 120 121 119 120 121 119 120 121 122 121 120 119 120 120 119 121 121 119 119 118 118 119 120 121 119 119 119 120 119 119 119 119 120 122 118
124 126 124 125 126 126 127 125 126 125 124 123 124 124 124 125 124 125 126 124 126 124 124 124 124 123 122 123 124 125 124 124 127 124 124 122 123 124 124 123 127 125 125 122 122 120 124 124 123 124 123 119 123 123 124 124 121 120 124 122 122 121 120 122 122 121 119 120 118 122 122 124 125 122 119 122 121 119 121 121 123 122 124 119 121 120 122 123 120 119 120 121 119 121 121 121 122 121 120 120 120 119 119 120 118 120 119 121 121 120 119 120 120 120 121 119 120 120 120 120 121 120 119 120 121 120 120 120 120 118 119 119 119 120 119 121 119 119 120 119 119 118 120 119 119 120
126 126 124 123 124 123 125 127 125 125 124 124 124 125 123 124 127 126 125 124 124 123 125 124 125 124 124 122 124 125 124 122 121 121 119 121 119 122 120 121 122 123 123 122 122 120 121 121 122 119 125 122 124 122 124 124 122 125 122 122 120 123 123 123 121 121 118 119 119 123 121 121 122 121 119 121 121 120 122 122 119 121 122 121 121 122 120 122 122 120 120 120 121 121 122 120 120 121 120 119 121 120 120 120 119 120 121 122 120 119 119 120 119 121 120 118 120 120 120 120 119 120 119 117 118 118 119 121 122 117 119 119 120 121 122 121 119 119 120 117 118 118 118 119 119 118
124 126 126 125 124 126 127 125 124 125 125 125 124 124 125 124 124 125 127 125 125 124 124 123 126 124 124 123 124 124 124 126 127 122 121 122 122 121 120 122 123 121 123 123 122 122 120 124 120 121 122 120 120 118 124 121 124 124 122 121 122 123 125 124 120 122 122 121 119 122 121 121 120 119 115 122 122 122 121 122 121 123 120 120 119 121 121 123 123 123 121 120 120 121 121 120 121 121 120 120 121 121 122 121 120 120 120 121 120 119 120 121 119 121 121 120 120 119 119 119 120 121 121 119 118 119 118 119 121 119 118 120 119 119 120 119 120 120 118 120 119 120 117 118 118 120
122 123 125 124 125 126 124 125 124 126 124 125 124 125 124 124 124 125 125 125 122 124 122 125 123 125 124 124 126 125 124 125 123 125 123 123 124 119 121 122 121 120 120 125 122 121 122 125 122 123 121 119 119 120 116 119 120 120 119 122 122 121 124 122 120 123 121 122 120 122 120 122 120 122 119 119 118 121 119 121 122 121 120 121 121 122 120 120 120 119 120 121 121 120 119 120 123 121 120 119 119 119 121 121 119 120 122 122 119 119 120 121 121 122 120 121 121 119 120 120 120 121 121 120 120 121 120 119 120 121 118 120 120 120 119 119 120 120 121 119 119 118 117 117 117 120
126 123 124 125 126 124 125 126 126 126 124 124 124 123 125 124 123 123 123 125 124 127 125 123 123 124 124 123 125 123 123 124 122 125 124 124 123 120 121 122 121 123 123 123 121 119 124 122 124 123 122 121 121 120 120 123 123 121 121 123 121 122 121 120 120 118 121 120 121 121 120 121 120 123 122 120 120 119 118 120 119 121 118 120 121 123 122 120 120 121 119 121 122 121 120 121 122 122 120 120 121 120 121 119 120 121 121 121 120 120 120 118 120 120 120 118 121 120 120 119 121 122 121 120 120 119 119 122 120 119 118 119 120 119 120 119 121 119 120 121 119 117 117 119 120 118
125 125 126 124 125 124 127 125 126 126 124 122 122 124 126 125 125 124 124 127 125 128 127 125 126 125 123 124 123 121 122 123 123 121 126 125 123 120 122 122 122 124 121 122 123 123 123 121 122 121 122 121 121 122 121 121 123 123 119 119 118 120 119 122 121 119 119 121 121 119 117 117 119 123 121 121 121 121 119 120 120 121 122 120 121 122 121 120 121 122 121 122 121 121 121 122 121 121 121 121 119 121 121 120 121 122 122 121 121 121 121 120 120 121 119 120 120 121 121 118 121 119 118 121 121 120 120 120 120 120 120 120 120 120 120 119 122 121 121 120 120 118 118 121 118 117
124 123 125 125 124 124 126 124 126 126 124 124 124 124 125 124 124 126 126 126 126 124 125 125 123 125 123 123 121 122 125 124 123 123 122 123 123 119 121 122 123 123 120 122 119 123 121 121 123 122 121 122 122 122 121 121 119 121 123 123 119 120 120 122 121 120 122 123 120 120 122 118 120 120 118 123 119 122 121 120 121 121 122 117 119 120 122 121 121 120 123 120 121 121 119 120 121 121 121 121 121 121 120 121 121 122 122 121 121 122 120 121 119 119 120 121 120 122 122 120 121 119 118 121 122 120 118 120 119 119 121 119 119 119 120 120 121 120 121 120 121 121 121 119 119 119
124 125 125 125 126 125 125 126 126 124 125 124 123 122 125 124 124 125 124 125 125 125 125 125 124 123 123 125 123 124 125 127 123 120 120 125 122 119 121 119 122 123 122 123 123 121 121 122 122 125 122 124 123 122 122 122 122 123 123 123 121 120 121 123 121 122 125 119 121 119 120 120 118 119 118 117 119 123 121 119 121 122 121 120 120 121 121 121 121 120 122 121 121 120 120 122 122 120 120 121 121 122 120 122 121 121 120 120 121 121 121 121 121 119 118 119 121 123 121 122 120 120 120 120 120 120 121 120 121 118 119 122 121 121 121 119 122 120 120 119 119 121 120 118 119 120
125 126 125 126 125 125 125 124 123 123 124 124 125 126 125 124 122 123 124 125 125 125 126 124 124 123 124 122 123 123 127 126 124 122 123 123 124 124 122 120 121 124 123 122 122 120 120 118 119 121 124 120 121 121 120 122 122 123 121 122 123 121 122 124 123 123 124 119 121 121 121 119 119 119 120 120 123 121 123 119 120 119 121 121 120 120 123 122 121 122 122 121 119 120 119 120 122 121 120 121 120 120 121 121 121 122 120 119 120 120 121 119 120 119 120 121 121 122 121 119 119 119 120 120 120 119 120 121 120 118 121 121 120 122 120 119 120 120 119 117 120 121 120 119 119 119
126 125 124 123 125 124 122 123 123 125 124 124 124 124 124 124 123 123 125 126 126 126 126 126 125 124 125 124 124 124 124 125 125 122 125 119 122 123 121 122 123 119 121 123 123 122 123 123 123 120 118 122 118 121 123 123 123 122 122 121 121 123 122 120 122 118 120 119 119 122 119 119 119 120 120 119 123 119 119 119 121 121 121 121 120 123 124 121 122 123 122 121 121 120 122 120 121 120 120 120 120 119 120 121 121 122 121 119 121 122 120 121 119 120 122 122 121 121 122 121 120 120 119 121 121 120 118 119 120 122 121 121 120 120 117 120 120 121 120 117 118 118 119 118 118 118
125 124 123 123 126 126 125 124 123 124 123 123 123 124 124 125 124 124 126 125 125 126 126 125 124 124 124 125 124 125 124 123 120 120 125 124 125 124 123 123 123 123 120 123 124 124 124 124 123 122 120 122 119 121 122 122 122 123 123 123 121 122 121 119 120 121 120 121 123 120 121 120 118 119 120 121 122 119 118 121 121 122 119 121 118 123 124 121 122 122 122 121 122 120 122 121 122 120 120 121 121 120 121 121 121 122 120 120 122 121 121 120 120 120 122 123 121 119 120 120 120 120 120 120 120 120 119 120 121 120 121 122 119 120 119 120 119 119 121 119 120 120 120 119 119 119
125 125 125 124 125 126 126 124 125 124 126 125 124 125 124 125 123 123 124 123 124 124 123 121 123 125 122 124 124 124 125 123 121 118 121 124 121 123 123 122 123 123 122 122 124 125 124 123 122 123 121 120 119 121 121 121 122 121 122 123 121 120 122 124 121 121 123 124 128 123 124 122 118 118 119 122 123 120 118 123 121 123 122 121 121 122 121 121 120 120 120 122 123 122 121 121 121 120 121 121 121 121 121 121 120 121 120 120 121 121 120 120 121 120 121 120 121 121 119 118 122 121 122 120 120 120 121 121 120 120 120 122 122 121 119 121 119 119 120 118 119 119 119 119 120 120
125 126 126 126 124 124 126 125 125 127 127 125 125 124 126 125 125 122 124 124 123 123 124 122 124 123 125 122 123 123 122 121 122 121 121 123 122 121 125 124 120 122 123 122 122 124 122 120 123 126 123 122 120 121 122 119 123 121 122 122 121 121 122 121 122 123 122 120 121 119 125 124 121 119 121 119 121 123 120 120 118 120 120 120 120 120 119 122 121 120 120 121 122 119 120 119 120 120 121 121 121 121 121 122 122 121 122 121 120 121 121 120 121 121 121 119 121 118 121 119 122 120 121 120 120 121 120 120 120 121 122 119 121 122 120 121 118 119 119 120 118 118 119 119 118 118
125 124 125 125 126 126 126 126 125 127 126 125 124 125 126 124 126 124 125 123 124 123 125 124 125 122 121 123 123 123 122 124 124 123 119 121 122 122 122 121 120 122 123 122 123 125 122 121 123 125 123 122 120 118 123 123 122 121 122 122 121 121 122 122 123 121 120 121 119 116 125 121 123 117 119 117 117 118 120 120 119 121 122 119 120 119 118 121 122 121 121 120 122 120 121 120 120 120 120 119 119 121 121 122 121 122 122 122 121 121 122 120 120 121 122 122 121 119 121 119 119 120 121 120 120 120 120 122 121 120 120 121 119 121 118 118 120 119 120 120 118 120 120 119 118 119
126 127 125 125 125 125 125 123 125 126 127 126 124 123 125 124 124 122 123 124 126 123 124 124 124 121 123 125 126 125 121 123 124 124 120 122 122 122 122 120 123 123 121 120 122 123 122 121 124 123 123 122 120 121 122 122 122 122 121 124 123 123 123 120 123 123 122 119 116 116 118 118 118 115 119 121 120 116 119 120 119 121 119 120 121 120 119 120 121 120 121 122 121 119 121 122 121 120 121 119 119 121 120 121 121 122 120 121 121 120 120 121 121 120 121 120 122 119 117 121 119 120 119 120 118 120 119 120 120 119 119 120 119 120 119 120 120 119 119 119 118 121 120 120 121 120
125 127 124 125 124 125 125 124 123 124 123 124 124 123 122 124 124 122 122 123 124 124 124 124 123 123 125 122 124 123 122 122 122 122 121 122 124 124 123 122 123 122 124 123 123 123 122 123 124 123 123 123 122 122 122 121 122 122 121 122 124 123 121 121 121 122 122 123 121 121 121 119 121 120 118 122 120 119 119 120 121 121 120 123 122 121 121 120 120 119 120 120 121 120 120 120 122 121 121 119 120 119 121 122 120 120 121 122 121 120 120 121 120 121 121 121 123 121 119 120 119 119 121 121 119 120 119 120 121 119 119 119 120 121 121 120 119 120 119 119 120 120 119 117 119 120
125 124 125 124 125 123 123 123 124 124 124 124 124 124 123 124 124 122 122 123 124 123 123 124 122 121 126 123 125 124 124 123 121 123 128 125 124 122 119 123 121 121 123 123 122 122 123 124 123 123 123 123 124 124 120 122 122 123 124 121 121 122 122 122 121 122 124 124 127 127 120 119 121 124 120 121 118 120 120 120 123 120 121 122 124 122 121 119 119 119 118 120 121 121 121 121 121 121 120 120 121 121 120 121 121 121 121 122 122 119 121 122 121 122 120 121 121 122 120 118 119 120 120 120 120 119 119 120 121 120 120 119 120 120 121 119 121 121 119 120 120 119 119 118 120 119
125 125 126 126 125 124 122 125 126 125 125 125 124 124 125 124 124 124 124 124 123 123 123 123 124 123 122 121 124 125 125 123 122 125 122 124 120 121 122 120 121 123 123 123 122 121 123 122 123 124 122 123 122 120 122 122 122 122 122 121 121 121 121 122 121 121 121 117 124 125 121 120 120 123 121 119 120 120 118 120 122 120 119 121 121 120 121 119 121 119 119 119 120 121 120 121 121 121 120 120 119 121 120 119 120 121 121 121 121 120 121 121 120 121 120 120 120 119 120 120 119 121 121 121 120 119 120 121 122 119 119 119 120 118 118 121 120 120 120 120 119 119 118 119 120 117
126 125 125 125 124 125 124 124 125 124 127 126 124 124 123 126 123 125 123 123 123 123 123 125 125 123 124 121 122 125 123 125 123 123 123 121 123 126 119 121 123 124 123 123 122 123 122 121 122 123 123 123 125 125 123 122 122 122 121 123 121 121 121 123 122 122 122 117 121 121 118 122 121 122 125 122 120 121 123 119 122 122 123 124 122 119 120 120 120 120 121 121 120 120 120 121 121 120 121 121 122 122 119 120 121 120 121 121 121 123 120 119 121 120 121 121 121 119 120 121 119 119 119 121 119 119 120 119 120 121 121 119 117 119 119 120 119 120 120 120 119 118 118 118 121 121
126 125 125 126 125 125 125 124 123 124 125 125 124 124 122 123 123 125 123 123 124 122 123 123 123 122 124 123 123 126 123 124 125 123 122 120 121 123 117 117 123 124 122 123 122 123 121 121 121 123 122 123 123 120 121 123 122 122 121 122 122 123 121 121 122 123 120 118 121 121 118 122 125 124 121 120 121 123 120 120 123 118 120 120 121 118 120 120 121 121 120 120 121 121 120 119 121 122 121 120 120 121 121 121 121 120 122 121 121 120 120 119 121 119 120 121 121 120 120 120 119 119 121 119 118 119 120 119 120 119 122 120 118 120 119 123 119 119 120 119 119 117 119 120 120 121
126 125 124 122 125 124 122 123 123 125 125 125 125 124 123 123 122 123 121 124 127 126 125 125 124 124 126 125 124 124 124 122 126 124 123 121 122 125 121 119 122 124 123 123 121 123 122 121 122 123 123 124 122 121 121 121 123 121 123 123 120 121 121 119 122 121 119 120 119 121 121 122 125 122 122 121 120 120 118 120 119 121 119 121 122 119 121 120 118 121 122 120 121 121 121 122 122 119 121 121 120 121 121 120 121 121 121 120 121 122 121 121 122 121 121 119 118 120 121 120 120 119 119 119 119 120 121 121 120 119 120 121 120 121 120 120 119 118 120 119 117 120 120 119 119 120
127 125 125 125 125 125 125 123 124 126 125 123 124 124 122 123 123 124 124 124 125 126 123 123 122 123 124 122 124 123 124 126 126 120 121 123 120 120 120 121 121 123 123 124 121 121 122 122 121 120 122 122 122 123 122 122 122 120 123 123 120 120 122 122 122 121 120 121 123 122 117 122 121 120 120 119 120 118 116 118 120 124 121 121 122 120 121 120 119 120 120 120 121 121 120 121 122 119 122 120 120 121 121 120 121 122 121 120 122 120 120 119 118 119 120 119 120 119 122 119 122 119 118 119 117 120 120 120 118 119 120 121 119 120 122 121 121 118 120 119 119 119 120 118 118 119
124 124 125 125 125 124 124 125 124 124 123 123 123 124 124 125 124 122 123 124 124 122 123 124 123 123 122 124 123 123 121 122 123 121 124 124 122 119 119 123 121 122 122 123 122 122 121 121 122 122 121 120 121 122 123 123 122 121 123 123 123 122 122 121 121 121 120 122 120 118 119 117 120 119 116 120 126 122 118 121 121 121 120 121 120 119 120 121 120 120 121 121 121 121 121 121 120 120 121 120 120 121 120 119 120 119 121 121 121 120 121 120 121 120 121 120 119 119 118 119 122 119 118 119 120 120 120 119 117 118 120 119 119 120 120 120 121 120 119 120 118 120 119 118 119 117
126 126 124 125 125 124 124 125 124 124 123 123 122 124 125 123 124 124 123 123 124 121 120 123 123 123 124 125 125 124 119 121 124 124 121 123 124 125 122 122 121 122 123 122 121 121 122 122 122 122 122 120 122 121 122 123 122 121 122 121 121 122 120 122 121 120 120 123 122 119 121 120 121 120 120 119 122 119 118 119 118 119 120 120 120 121 121 121 120 121 122 120 121 120 120 121 119 120 120 119 120 121 120 120 122 120 121 120 120 122 121 118 121 120 121 121 120 121 121 121 119 119 120 120 122 122 119 119 119 119 120 120 119 119 119 120 120 119 119 120 117 119 119 118 119 120
126 125 125 124 125 125 126 126 124 124 124 123 122 125 124 124 124 124 124 123 123 124 123 124 123 123 123 126 124 123 124 122 121 125 123 125 123 121 121 120 121 124 122 122 121 123 122 123 122 121 121 119 122 122 123 122 121 121 123 122 119 121 120 122 118 118 121 119 124 119 119 116 119 123 120 120 123 122 119 120 119 118 121 120 121 121 122 119 120 121 122 121 120 121 121 122 121 120 120 122 120 121 121 121 123 119 120 118 120 120 121 118 120 119 121 121 120 120 120 121 121 121 123 119 118 120 118 118 119 120 120 119 120 120 118 118 119 119 121 120 120 121 120 120 118 118
126 124 124 125 124 124 125 124 124 123 123 124 121 124 126 125 123 123 124 124 122 124 126 126 123 124 124 122 123 123 123 124 124 121 123 122 121 120 122 119 119 123 121 121 122 123 122 122 122 122 123 120 119 123 122 124 122 123 122 121 121 121 122 121 121 121 120 120 125 118 121 120 121 118 118 117 121 124 121 121 120 119 122 119 121 122 122 120 119 119 121 120 121 120 120 120 121 121 120 119 119 123 121 120 121 121 121 121 120 120 119 120 122 120 120 118 119 120 120 120 119 120 120 120 120 120 119 118 119 118 117 119 120 120 117 117 120 120 122 118 120 122 120 121 119 118
126 124 124 125 125 123 123 123 123 124 124 124 123 124 124 124 124 123 123 125 122 125 125 125 123 124 124 124 125 122 123 125 121 118 121 122 122 122 122 122 122 122 121 122 121 122 121 122 122 122 120 122 120 122 119 124 124 123 122 122 121 121 122 122 121 118 116 121 120 119 122 122 121 119 119 120 120 121 121 121 118 120 120 118 119 121 120 120 118 119 119 120 119 121 118 120 120 119 120 120 120 121 120 120 119 119 120 120 122 122 120 121 121 120 121 120 121 121 120 120 121 121 121 121 119 121 119 116 118 120 119 121 120 118 118 116 118 119 119 119 120 120 121 120 119 120
126 125 125 125 125 123 123 123 126 124 124 124 125 124 124 123 125 125 124 123 121 125 123 121 124 123 124 123 123 121 123 123 123 119 119 121 122 122 121 121 124 121 123 124 120 121 121 122 122 122 121 120 121 121 120 122 120 123 122 120 120 119 118 122 121 122 120 121 120 121 122 120 120 121 121 120 122 120 120 120 119 121 121 121 118 117 121 121 120 122 121 121 120 120 120 122 120 120 121 121 121 120 119 118 120 119 119 119 120 120 119 122 119 121 121 121 121 120 119 120 120 119 121 121 120 121 120 117 119 120 117 119 119 119 120 118 120 119 120 119 120 120 120 120 120 118
125 125 125 124 124 126 126 126 126 124 124 125 126 123 124 125 126 125 124 123 123 124 124 123 124 123 123 124 123 122 123 123 123 124 119 122 122 122 122 120 122 122 122 122 123 122 121 122 120 122 122 122 120 121 122 121 120 124 124 119 121 120 118 118 120 122 120 121 120 120 120 121 121 118 119 120 121 121 121 119 119 120 120 120 120 119 120 120 121 121 122 122 121 120 120 122 120 121 120 121 122 121 120 121 121 119 121 120 120 119 119 121 120 120 119 121 121 120 120 120 120 120 121 120 119 121 120 119 118 119 119 122 120 119 119 119 119 118 120 119 119 120 120 120 120 119
125 124 126 124 123 125 124 124 125 125 124 124 123 124 125 125 126 124 121 125 124 123 122 122 122 123 123 123 123 123 122 123 123 125 119 120 120 121 119 121 123 122 121 123 123 122 121 122 122 120 123 124 121 122 120 119 120 122 122 122 120 121 119 117 120 121 118 119 119 120 120 119 120 117 119 118 118 121 122 121 121 119 119 120 121 120 119 122 120 121 119 121 121 120 120 122 120 121 121 121 119 121 122 122 120 120 121 121 119 119 118 119 120 120 120 120 119 118 119 120 122 121 120 117 118 119 119 118 120 119 119 121 117 119 120 119 119 119 120 117 116 118 119 119 118 117
125 125 123 124 124 125 125 123 122 125 124 122 123 124 125 126 125 123 121 125 123 123 123 125 126 123 122 123 123 123 122 122 124 122 120 120 121 123 121 122 121 123 122 121 122 123 122 123 122 121 121 121 119 122 121 120 119 120 121 123 120 121 121 119 120 117 119 119 120 122 120 121 122 117 119 120 117 119 120 118 121 120 119 120 121 120 119 119 119 119 120 120 122 121 120 121 121 121 121 121 121 121 121 120 120 120 121 122 122 121 119 121 121 120 121 120 118 120 119 118 122 123 120 119 119 120 119 119 119 120 119 120 122 120 120 119 118 119 119 117 117 119 119 120 120 118
125 126 125 124 124 123 124 124 124 124 126 125 124 124 124 124 122 123 122 123 124 124 123 124 124 121 125 125 122 124 123 123 122 120 120 120 123 124 118 122 124 122 120 117 119 124 122 123 124 122 120 121 119 121 121 120 120 120 120 120 121 121 120 120 121 118 119 120 121 122 122 121 123 118 117 118 120 119 119 118 119 120 120 120 118 120 120 120 120 121 120 121 121 121 119 120 120 120 120 119 120 122 122 122 121 121 120 118 121 119 121 120 122 120 120 121 120 120 119 118 122 122 118 121 120 120 120 120 118 119 118 119 121 119 119 121 121 121 119 118 117 118 118 119 121 118
124 126 125 126 126 124 124 124 125 125 124 125 123 124 126 125 125 121 123 123 124 124 123 124 123 123 124 125 123 123 121 121 122 122 122 119 124 125 123 122 122 122 121 122 118 122 123 123 123 121 121 120 120 121 120 121 119 119 118 119 120 120 120 120 122 118 119 122 121 120 121 117 118 118 117 119 122 120 120 119 121 120 120 120 118 120 120 119 122 121 121 120 120 121 120 121 119 120 121 119 120 123 120 120 119 121 120 119 122 122 120 121 122 119 119 120 120 120 122 117 121 121 121 121 118 119 119 120 121 121 118 118 119 119 119 121 119 119 119 121 118 119 119 119 119 119
125 124 125 125 124 124 125 124 124 125 127 125 123 123 122 124 122 124 124 123 123 123 125 125 123 123 125 123 124 123 122 122 124 124 125 120 124 123 122 123 122 125 122 120 119 122 121 122 122 121 122 123 120 121 120 122 120 122 119 119 122 120 119 120 119 120 120 120 121 119 119 122 122 120 122 119 120 119 120 120 121 120 120 121 119 118 119 117 120 120 120 119 121 121 122 122 122 120 122 120 121 122 120 119 120 119 119 117 119 120 121 123 121 120 120 119 119 118 120 120 121 121 120 120 119 121 121 122 121 120 118 119 119 118 120 120 119 120 121 121 120 120 119 121 120 118
124 124 126 125 125 126 125 124 124 127 125 124 125 123 124 123 124 124 124 124 124 124 126 123 123 122 124 124 126 123 122 123 124 123 122 123 123 122 124 124 123 125 122 120 119 119 122 121 121 121 121 124 122 120 117 118 120 119 120 118 120 121 120 121 120 118 120 119 120 121 120 120 122 121 120 122 121 118 120 120 123 121 121 120 120 120 120 119 120 121 119 119 120 122 121 121 121 120 119 119 121 119 121 121 120 120 119 119 121 120 121 122 121 121 120 121 122 121 120 122 122 122 120 121 120 120 121 120 120 120 121 119 120 120 121 120 119 119 118 121 120 119 119 121 123 119
125 126 124 124 124 125 125 125 123 125 125 124 125 124 124 125 125 125 122 123 124 124 124 123 124 122 122 123 124 123 122 123 124 125 124 123 123 121 123 122 122 124 123 121 118 116 120 121 121 121 120 123 125 122 121 120 122 119 120 119 122 123 122 120 119 118 121 121 119 119 121 119 121 120 118 119 120 117 119 118 120 120 121 120 121 121 120 120 121 120 121 120 123 122 121 121 122 120 119 118 121 120 121 123 121 120 119 118 120 121 120 119 121 120 122 122 120 118 121 121 120 120 119 119 120 120 121 118 121 120 121 120 120 120 119 119 119 120 119 122 119 120 118 121 120 119
124 127 123 124 124 124 122 122 121 125 126 127 124 123 124 124 125 124 124 124 125 124 123 123 125 123 124 124 124 122 124 126 125 124 127 121 121 122 124 122 124 123 123 121 121 121 120 120 120 121 120 119 125 123 122 120 118 118 120 119 120 122 124 122 119 119 119 119 121 121 120 121 120 122 120 119 119 118 118 118 120 120 119 120 120 120 120 119 120 121 121 120 121 119 121 120 120 119 120 121 120 121 121 121 121 120 120 120 121 121 121 118 120 119 121 122 120 120 121 120 119 118 121 120 119 121 119 119 120 121 120 119 120 120 120 120 121 119 119 119 119 119 118 121 119 120
126 126 125 126 126 124 123 124 125 125 125 125 124 124 125 123 125 125 124 124 125 126 125 123 124 124 125 124 124 125 125 125 123 121 123 121 124 124 121 122 123 124 124 122 122 120 119 120 119 121 121 120 118 121 123 120 120 120 121 120 119 123 122 120 117 116 118 120 120 119 122 121 120 120 120 121 121 121 119 121 121 121 122 121 120 121 121 119 122 121 122 120 121 119 120 120 120 121 120 120 120 122 119 119 120 119 120 121 121 119 121 120 120 121 120 119 119 119 120 120 121 119 119 118 121 121 121 121 122 122 119 120 120 121 119 120 121 120 121 121 118 121 120 120 121 122
124 126 125 124 124 123 123 122 124 122 125 125 124 125 126 124 124 123 123 124 125 124 124 123 123 123 124 124 124 124 123 123 122 122 122 122 122 124 122 123 124 122 121 119 121 121 121 119 120 121 121 123 121 122 120 118 120 121 120 121 119 123 123 122 124 122 120 120 120 120 119 120 119 119 121 120 120 120 119 120 120 121 120 119 120 121 123 121 121 121 123 122 120 121 120 120 120 120 118 119 120 119 119 119 121 120 121 120 120 121 122 119 120 121 121 119 119 119 120 120 119 119 119 117 120 119 121 119 120 120 120 119 120 118 119 119 119 120 120 120 121 120 121 120 120 121
126 126 126 123 123 122 123 123 123 124 124 124 124 123 124 125 125 123 123 123 123 123 124 122 124 124 124 124 124 124 123 124 123 123 123 122 122 123 122 124 122 121 124 123 121 122 120 120 121 120 119 119 119 121 119 120 119 119 120 123 121 122 122 123 121 119 120 120 119 121 118 121 121 121 124 122 122 121 118 118 120 120 120 120 119 119 121 119 119 119 121 121 119 121 121 120 122 119 118 120 121 120 119 120 121 120 120 122 121 120 121 120 119 119 120 121 121 120 121 118 119 120 119 118 119 120 119 119 120 120 119 117 117 117 118 119 120 120 121 120 120 120 120 119 119 120
125 126 125 125 124 124 124 124 123 124 123 121 123 123 124 127 125 124 124 123 123 124 124 124 124 123 123 123 123 123 124 124 122 122 123 122 122 122 124 122 123 120 122 123 122 120 120 121 121 122 121 119 119 119 122 122 119 123 123 120 122 121 123 124 120 121 120 120 120 120 119 121 121 121 121 122 121 121 119 120 120 119 119 122 119 119 121 120 119 121 120 120 120 121 121 121 120 121 119 120 120 121 120 119 120 121 123 123 121 119 120 120 117 119 117 121 120 119 120 120 120 119 120 120 117 120 121 121 118 121 119 120 121 118 118 120 121 121 121 121 119 120 118 119 120 121
124 125 123 125 124 125 124 124 122 125 122 121 123 123 125 126 125 124 124 123 123 123 124 124 124 124 124 123 123 124 123 123 123 123 123 124 123 121 123 122 123 121 123 124 121 121 122 119 120 120 121 121 119 120 122 122 121 120 119 120 123 122 122 121 120 121 119 121 121 121 118 118 120 120 121 121 121 119 122 122 120 121 120 121 119 120 121 121 119 120 119 120 119 120 120 122 121 119 119 122 120 119 120 119 122 125 122 121 120 120 119 120 119 119 120 121 120 119 120 120 121 122 121 119 120 121 121 120 120 119 118 119 121 120 121 118 119 120 120 119 120 119 120 119 120 120
124 123 124 124 124 124 124 123 125 125 122 124 124 120 124 125 124 123 125 123 123 125 123 124 123 123 125 124 124 124 124 123 124 124 123 123 123 123 122 124 121 120 123 124 120 121 122 122 119 121 122 122 119 122 118 120 120 122 122 121 121 119 121 120 120 121 120 121 120 121 120 120 121 121 120 121 121 119 121 120 120 121 121 120 120 122 121 121 120 120 120 121 119 120 120 122 121 121 122 121 119 120 120 119 119 120 120 120 119 120 119 119 121 120 121 119 118 119 120 118 120 121 120 118 119 119 120 120 120 120 120 119 120 120 120 118 120 120 121 121 120 119 120 120 121 120
128 126 124 123 124 123 123 126 125 123 123 123 123 124 124 125 125 124 124 124 125 124 121 122 124 123 124 123 125 123 123 123 124 124 123 123 124 124 123 123 121 122 122 120 122 122 122 122 122 122 123 120 119 121 124 122 122 122 121 122 121 122 122 122 124 122 122 121 122 121 121 120 121 122 121 121 122 121 120 120 120 120 119 120 121 121 122 120 120 119 119 120 120 121 120 121 121 119 120 122 120 118 121 120 122 119 118 121 120 122 120 119 121 119 120 119 121 120 121 120 119 120 119 117 119 121 121 121 119 119 119 119 119 119 119 121 122 122 120 120 120 119 119 121 120 118
127 124 124 124 127 125 125 124 124 123 122 123 124 124 126 125 125 125 124 124 125 123 124 126 124 124 124 124 124 124 122 122 123 123 123 124 125 124 123 123 122 121 123 122 122 120 122 125 124 121 124 123 119 118 123 122 121 122 119 123 124 120 121 118 121 121 121 121 122 119 121 120 119 121 122 122 122 121 122 121 119 120 119 121 122 122 123 122 120 119 118 120 121 120 121 122 122 121 121 121 118 121 120 120 120 118 118 121 120 120 122 122 121 120 121 119 122 121 120 120 119 119 119 118 120 121 120 119 119 120 120 121 119 119 121 122 121 121 119 120 120 123 120 121 120 121
127 126 124 124 125 125 125 123 122 125 124 124 124 124 125 125 124 124 124 124 122 124 125 125 124 124 124 123 123 124 122 123 123 123 124 124 124 125 124 124 122 123 122 122 120 120 122 124 122 122 120 121 120 122 122 121 121 119 121 122 121 119 120 120 117 121 122 121 120 121 122 119 120 121 122 122 121 121 121 121 120 119 121 119 120 120 121 121 121 120 120 119 118 119 122 121 121 121 121 121 120 120 119 121 121 119 120 120 121 123 121 120 119 120 120 120 121 119 120 119 119 119 121 121 120 120 121 120 120 121 118 120 119 118 121 119 119 121 120 120 121 121 119 120 119 119
125 125 123 123 124 125 124 123 123 125 127 124 125 124 124 124 123 122 123 123 123 124 122 124 123 125 124 123 125 124 123 123 124 124 122 122 123 124 123 123 123 122 122 120 121 120 122 122 121 121 124 123 122 122 121 120 123 120 123 123 122 119 122 120 120 121 121 120 120 120 120 120 121 122 121 121 121 120 121 120 119 120 118 119 121 119 120 121 121 120 121 120 121 121 121 120 119 121 119 119 119 120 119 120 121 120 119 120 121 123 121 121 120 121 122 122 121 120 120 118 119 119 121 121 121 121 120 120 119 122 119 119 119 118 118 120 119 119 121 120 122 121 117 119 120 121
127 125 123 124 123 125 124 125 125 125 126 125 124 123 124 124 124 123 123 123 122 123 123 124 123 123 122 124 123 124 123 123 123 122 125 125 124 123 124 123 123 122 122 122 123 120 120 122 122 122 123 121 122 122 122 121 122 121 123 120 121 119 119 119 117 119 119 122 121 120 120 121 121 122 121 120 121 120 120 121 121 120 118 121 121 121 120 121 121 122 122 120 121 119 117 121 120 119 120 120 118 120 120 121 120 120 122 122 119 120 121 119 118 120 119 120 121 120 120 119 120 120 120 119 122 121 122 119 120 120 120 121 118 119 118 120 120 119 119 120 119 120 118 119 120 121
126 126 124 124 124 124 123 124 125 126 125 126 124 123 126 126 124 126 123 123 123 125 124 124 125 123 123 124 124 124 125 123 124 122 124 125 123 124 124 124 124 123 123 120 118 121 121 121 120 121 121 120 121 121 121 123 122 124 121 122 120 119 122 121 120 121 120 121 120 120 121 121 120 120 120 121 121 122 120 121 121 120 121 120 121 122 121 122 122 121 120 121 121 120 118 119 120 120 121 121 120 120 119 120 119 119 120 122 119 118 119 118 119 120 119 121 121 121 121 121 120 121 122 119 119 120 119 119 120 121 119 120 119 121 120 119 121 121 119 120 119 121 120 120 121 120
124 124 125 124 124 123 122 124 125 126 126 125 122 123 124 126 125 125 125 123 123 123 124 124 123 124 123 124 122 123 123 122 125 124 123 123 123 122 122 123 124 125 123 121 121 122 122 121 123 122 121 121 123 121 122 122 123 123 122 121 121 122 121 120 121 120 121 122 121 121 121 120 120 120 121 120 120 121 122 121 122 121 122 120 122 121 121 121 121 121 120 120 121 120 119 120 119 120 120 119 119 119 121 118 120 120 120 122 119 119 120 120 120 119 120 121 121 121 120 121 120 120 121 119 121 119 119 120 120 120 116 118 118 119 119 119 121 120 120 121 121 120 120 120 120 119
123 124 125 125 126 123 124 125 124 126 126 127 123 124 124 124 125 125 125 124 125 125 124 124 125 124 125 124 124 125 122 123 124 125 123 124 124 124 122 124 124 122 122 122 122 122 124 122 122 123 123 122 122 122 122 119 123 124 122 121 122 120 121 121 120 121 122 121 122 121 122 121 119 121 122 120 120 120 121 120 121 120 121 122 122 121 120 121 120 121 122 121 119 120 121 121 120 119 119 119 120 119 121 120 119 120 121 120 119 120 121 120 121 121 120 118 121 122 119 116 120 119 120 121 121 120 120 120 122 120 118 119 120 119 119 119 119 120 120 120 120 120 121 122 120 121
125 126 125 127 127 126 126 124 124 125 126 128 125 125 124 125 124 125 125 124 124 124 124 123 124 124 124 124 124 123 124 123 122 125 123 124 124 124 124 125 123 123 122 122 121 121 123 121 122 121 122 121 122 124 123 120 121 121 120 121 122 122 121 122 120 121 120 120 123 121 122 123 121 120 121 120 120 121 120 121 121 121 121 121 121 121 120 120 121 122 121 120 121 121 121 120 120 119 120 119 119 119 119 119 120 119 119 119 121 120 120 118 121 120 120 121 120 119 120 120 121 121 120 122 120 121 121 122 120 119 118 119 119 120 120 119 119 119 119 120 120 121 120 121 119 121
126 126 126 126 127 124 124 123 125 127 125 125 127 125 123 124 124 123 125 124 125 125 126 126 124 123 124 125 125 124 124 123 124 124 124 124 123 124 125 126 124 123 123 122 120 121 123 121 122 123 123 122 124 121 122 121 121 120 121 120 122 123 122 121 120 121 122 122 120 122 122 122 122 122 120 120 121 120 120 122 120 121 119 122 122 121 122 121 122 121 120 121 121 122 120 119 119 120 120 118 120 121 119 119 119 120 121 120 119 121 120 120 120 121 122 121 121 120 120 121 120 120 120 121 120 121 121 123 120 120 122 122 120 120 120 120 121 120 120 120 120 119 119 120 119 120
126 127 127 128 127 127 128 125 126 127 126 126 124 124 124 125 124 124 123 123 125 124 124 125 125 125 124 124 123 123 123 123 123 124 124 123 123 124 124 125 123 124 124 124 124 120 121 120 122 122 124 124 123 121 121 120 121 120 121 121 120 121 122 123 122 121 121 121 122 122 123 123 121 120 121 120 120 120 121 122 120 121 119 121 121 121 121 120 121 121 120 121 121 122 120 120 119 119 120 119 120 122 120 121 120 119 119 119 120 120 121 121 120 121 120 120 120 120 122 121 119 119 120 121 119 119 120 121 122 121 120 120 120 118 119 118 119 119 120 119 120 120 119 119 121 121
128 128 127 128 128 128 127 128 128 127 127 125 125 124 123 124 124 123 123 124 125 123 123 124 123 125 125 123 122 122 123 123 122 122 122 124 123 121 123 123 123 123 123 123 122 120 121 122 120 121 123 122 122 121 120 121 121 122 121 122 121 121 121 120 120 120 121 121 121 121 120 121 120 120 121 121 120 121 121 121 120 121 120 121 121 121 122 121 120 121 122 121 121 120 120 121 120 118 120 119 119 121 119 120 119 121 120 121 120 122 119 119 120 122 121 120 119 121 121 119 119 120 120 120 119 119 120 119 121 121 121 122 120 120 121 119 118 119 118 120 118 119 118 119 121 122
126 127 126 126 128 127 126 126 129 128 127 124 123 124 124 125 124 124 124 123 125 123 124 124 123 125 123 123 122 122 122 123 122 123 123 124 123 124 123 122 124 123 122 123 123 122 122 121 122 122 121 123 124 122 122 121 121 122 119 121 121 122 120 119 120 119 121 122 120 122 121 120 122 122 122 122 121 120 122 122 121 121 120 120 120 121 121 122 120 120 121 120 118 120 120 119 120 118 120 119 119 118 119 120 119 119 118 118 118 118 119 120 120 121 121 119 120 121 120 120 119 119 118 120 120 122 120 120 120 120 120 120 121 122 121 121 119 119 119 119 119 120 119 120 120 120
127 127 127 128 127 126 126 126 128 128 125 123 123 124 124 124 124 125 125 124 120 123 124 126 124 124 125 124 122 123 124 122 124 124 124 122 122 124 123 122 123 123 125 123 124 125 122 122 122 122 121 121 124 123 122 120 121 121 120 121 119 120 120 121 123 122 122 120 121 122 121 120 120 121 121 122 121 119 120 120 118 122 123 120 120 120 122 121 122 120 121 121 121 122 121 120 120 120 120 120 120 118 120 121 119 120 119 117 118 120 120 120 119 118 118 119 120 121 121 120 119 119 121 120 119 120 118 119 118 120 120 118 120 119 119 122 120 120 120 121 121 121 119 118 118 120
128 129 127 128 128 128 127 126 128 127 126 124 124 125 126 124 126 124 126 125 122 124 124 125 125 125 125 125 125 124 126 124 125 124 123 122 124 124 123 123 121 123 124 123 124 123 122 122 121 122 123 121 122 122 122 122 122 122 122 121 121 121 120 122 121 121 122 121 121 121 121 121 121 121 122 121 122 120 121 121 120 121 120 120 122 121 121 121 121 120 119 120 120 120 122 121 119 120 121 120 119 120 121 119 119 120 118 119 119 118 120 120 120 117 118 119 119 119 120 120 120 122 121 118 119 118 119 120 120 121 121 121 120 120 121 121 120 120 120 121 120 120 118 119 120 121
128 129 128 127 127 126 128 127 127 127 126 124 125 124 125 125 125 125 125 123 123 124 125 124 124 126 124 124 126 124 124 123 124 121 123 122 122 123 122 121 120 124 125 123 121 121 123 121 122 122 122 122 122 122 122 125 122 122 124 121 121 121 122 121 122 121 122 121 120 121 121 119 120 121 121 120 121 121 120 121 119 120 120 120 122 121 121 119 119 119 121 122 122 120 119 120 120 121 120 120 119 119 121 120 119 121 120 119 120 120 120 119 120 119 117 119 119 118 119 118 120 121 121 119 120 118 121 120 120 120 118 122 118 119 121 120 120 119 120 121 121 121 120 121 121 122
129 128 127 127 127 128 128 127 127 127 126 124 124 124 124 125 124 124 123 124 124 125 123 124 126 125 124 123 124 125 124 122 122 122 122 124 122 122 122 123 122 126 125 121 121 123 123 122 123 121 123 122 121 120 122 122 121 121 123 120 120 122 122 122 123 122 123 122 120 121 122 120 120 121 120 121 120 120 121 120 119 120 120 121 121 121 120 119 120 120 120 120 122 121 121 122 120 122 121 120 119 118 121 122 118 119 121 120 120 119 121 119 118 119 118 119 120 120 119 121 120 120 121 121 120 119 121 120 120 120 121 120 118 118 120 121 119 118 120 121 120 120 121 121 121 121
129 128 128 127 127 128 128 127 126 126 125 127 125 124 123 123 124 125 124 124 124 125 124 123 125 123 123 123 124 125 123 123 120 123 122 123 123 123 122 125 122 121 122 122 121 123 122 121 121 120 122 122 122 122 121 122 124 122 123 120 121 122 121 121 123 122 122 121 121 120 121 121 120 118 120 120 120 121 121 121 121 120 121 120 121 121 121 119 121 119 119 120 119 119 119 120 120 121 121 122 121 120 119 119 119 120 120 119 119 119 120 118 118 119 118 119 121 120 119 119 118 120 120 120 119 119 120 121 120 120 122 120 118 118 120 119 118 119 120 121 121 121 120 122 121 122
129 127 127 127 128 127 126 127 127 127 127 126 123 124 124 125 124 126 125 122 123 125 122 122 123 123 122 121 122 124 123 124 121 122 122 122 122 122 122 125 122 120 122 121 121 121 122 121 121 122 123 124 122 124 122 122 122 122 120 122 123 122 121 121 121 121 121 121 122 120 121 119 120 119 121 122 122 121 121 122 122 121 120 120 120 120 120 118 121 119 119 118 120 120 118 121 120 121 122 120 120 119 118 119 120 120 121 120 122 120 120 118 119 122 118 118 119 121 119 119 120 120 119 120 120 118 119 121 121 121 121 121 119 118 120 119 120 120 119 120 121 120 121 121 119 119
130 128 128 127 128 127 129 128 127 127 126 126 124 125 123 124 125 126 125 123 123 123 123 124 124 122 124 124 122 120 120 122 121 122 123 122 122 125 122 125 124 122 122 121 124 123 121 122 121 122 121 121 120 122 122 123 121 123 122 122 121 121 120 122 122 120 122 122 122 122 121 119 122 121 121 121 120 119 122 122 122 120 120 120 121 120 120 120 120 118 119 120 120 121 119 120 119 120 121 120 120 120 120 119 120 121 120 119 120 118 121 120 116 119 119 118 122 120 119 119 121 119 119 121 120 119 120 122 122 121 120 121 121 120 120 119 120 120 119 119 120 121 120 121 120 121
130 130 128 128 128 129 130 128 128 128 125 124 123 123 123 125 124 127 126 126 124 124 125 125 125 124 125 123 122 122 123 122 121 120 123 125 122 125 124 123 123 122 122 124 123 123 123 121 119 123 122 122 122 123 122 122 122 122 122 121 121 122 119 121 122 121 120 120 124 123 123 122 122 122 120 120 119 120 122 120 119 120 121 122 120 120 120 120 121 119 120 120 120 119 119 120 120 120 122 121 121 120 118 120 120 120 120 120 119 119 120 118 119 120 121 119 120 121 120 120 120 119 119 118 120 119 120 120 121 121 119 121 121 119 119 121 119 120 120 119 121 119 120 121 121 120
132 130 130 130 128 129 129 129 128 127 125 125 124 125 124 125 126 126 125 123 123 123 123 126 125 124 125 124 123 125 124 124 121 121 124 124 122 123 121 123 123 120 121 123 121 122 121 120 121 123 121 120 120 121 121 121 121 122 122 122 121 122 121 120 122 122 121 121 121 120 121 121 122 120 120 120 120 120 121 121 120 120 120 121 121 121 122 119 119 120 121 118 120 120 120 120 121 121 121 121 120 120 120 121 120 120 120 121 122 122 120 121 121 122 120 120 119 119 119 120 122 119 119 121 121 120 121 121 121 120 119 121 121 119 119 121 120 119 121 121 121 119 120 121 120 119
130 130 130 129 129 129 129 129 127 127 128 127 126 125 126 126 127 126 123 122 121 122 121 124 123 124 126 125 124 123 123 124 124 123 123 123 124 123 123 123 125 121 121 123 122 122 122 122 123 123 121 121 120 120 120 122 122 121 121 122 123 122 122 121 122 122 124 122 121 121 121 120 121 121 121 121 120 120 119 121 120 120 120 119 119 120 121 118 119 120 121 120 120 119 119 120 119 120 120 120 122 121 121 122 121 120 119 119 119 122 120 120 120 118 119 121 120 118 119 122 120 120 119 120 120 121 120 120 120 120 119 119 121 121 120 121 121 121 120 120 119 119 120 121 120 120
132 132 132 130 130 131 130 128 127 129 128 127 127 125 127 127 128 126 126 124 125 125 124 125 124 125 124 126 123 123 122 123 122 123 121 123 123 124 123 124 123 122 122 121 122 122 123 122 122 121 122 122 122 121 121 122 122 122 124 123 123 122 122 122 121 120 120 119 121 122 121 120 121 121 121 122 122 121 122 122 121 120 119 119 118 120 121 122 120 119 121 120 121 120 121 122 121 119 120 120 122 121 122 122 119 120 120 120 118 122 122 121 121 119 120 119 121 120 118 120 121 120 121 120 120 118 119 121 121 120 120 121 121 120 119 120 120 121 120 122 120 120 121 121 121 121
132 133 132 130 129 130 128 129 128 129 127 126 127 127 126 130 128 128 126 125 125 125 125 125 124 124 125 125 123 123 122 122 122 122 122 122 122 124 123 123 123 123 124 123 123 122 123 122 121 122 123 121 120 120 121 121 120 122 122 120 122 123 120 121 121 122 120 118 121 121 121 120 122 121 121 120 121 123 123 122 121 120 121 120 120 119 118 120 121 120 121 119 120 120 120 122 121 119 120 118 121 122 119 120 121 120 120 119 121 121 120 121 121 120 120 120 120 120 118 118 119 120 121 121 119 118 119 120 119 120 121 121 120 120 120 117 119 121 120 119 119 121 121 121 120 119
131 131 132 130 130 130 129 127 127 128 128 127 127 128 129 128 127 127 127 127 126 125 125 126 127 126 125 125 125 123 123 123 123 122 123 124 123 124 123 120 121 123 122 122 121 119 122 121 121 123 122 122 122 120 121 121 121 120 121 121 121 121 121 120 120 120 120 121 121 121 121 120 121 120 121 121 121 121 121 122 120 120 121 122 122 121 120 119 120 122 119 120 120 120 121 120 121 120 120 117 120 120 119 118 119 120 118 118 122 121 121 119 121 121 120 119 121 120 119 121 121 118 119 119 120 119 119 121 120 121 121 121 121 122 119 120 121 121 119 119 119 120 119 120 118 121
132 131 131 131 131 130 130 129 128 129 128 127 127 126 128 127 127 127 127 126 126 126 125 126 127 127 126 124 125 127 124 123 124 123 122 121 122 121 124 123 123 122 124 121 119 120 123 122 122 120 121 121 122 121 119 120 118 119 121 120 119 120 121 120 120 122 121 122 121 123 120 121 122 121 123 122 121 121 121 121 121 120 122 123 122 122 121 120 120 120 120 121 121 121 120 121 122 119 119 119 118 119 118 120 120 120 118 120 121 121 121 120 120 118 118 120 121 120 119 119 119 121 120 119 120 121 122 120 121 122 120 119 116 116 118 118 121 120 120 120 118 119 119 121 119 120
131 133 132 132 130 130 130 128 129 129 129 129 128 127 127 127 126 127 128 126 126 124 126 126 127 125 126 125 124 124 126 126 122 125 122 122 121 121 124 121 123 122 124 122 121 122 120 120 121 120 120 120 123 122 122 120 120 121 121 121 122 121 121 122 122 123 121 123 122 122 121 123 123 122 122 121 121 121 121 120 121 121 122 121 123 122 122 122 120 121 120 120 119 121 122 120 120 120 120 118 121 120 121 120 120 121 120 121 120 120 120 120 121 120 119 121 119 119 118 119 119 120 121 120 120 121 120 119 120 120 118 119 120 118 116 118 121 121 121 120 120 120 120 120 119 119
131 134 132 132 131 131 131 131 130 129 129 129 130 128 128 128 125 127 127 128 126 125 126 126 125 126 125 122 123 125 126 126 124 125 124 122 124 122 123 119 121 121 123 123 122 121 121 120 121 120 121 120 121 122 121 118 120 120 122 119 120 121 120 121 119 120 119 122 122 122 122 122 123 123 122 120 120 120 122 121 122 120 120 122 121 121 121 120 119 120 120 120 120 121 122 119 120 120 120 120 120 120 122 121 121 121 122 120 119 122 122 120 118 119 121 119 120 120 120 119 119 120 119 120 118 119 120 120 120 119 120 120 119 120 118 120 121 120 121 121 120 120 120 120 121 121
132 132 133 133 131 132 132 132 132 130 131 130 128 127 128 128 127 126 127 129 127 124 126 126 125 126 123 123 125 125 125 124 123 124 125 123 122 124 124 117 123 121 121 122 122 121 120 120 122 120 122 118 120 123 122 121 120 120 123 122 122 122 122 121 121 119 121 122 122 122 121 121 122 122 122 120 121 122 121 121 122 121 121 121 122 121 122 121 119 120 121 120 120 120 120 117 120 120 121 122 119 120 122 120 119 121 119 121 118 119 119 119 121 119 119 120 119 121 120 121 121 119 119 119 119 120 119 119 121 120 120 120 121 119 120 122 120 121 121 120 120 121 119 119 120 120
133 133 132 132 132 131 133 132 132 132 130 129 130 128 127 127 128 129 127 126 126 124 125 126 126 125 122 122 124 123 126 124 126 120 121 124 122 123 123 121 120 123 123 123 123 124 123 120 118 119 122 119 120 122 123 122 122 120 121 121 122 123 123 121 119 119 121 121 121 121 121 122 122 122 122 120 120 120 119 119 121 121 120 121 121 121 121 120 120 122 120 120 121 119 120 121 120 122 121 122 121 120 121 121 120 121 120 120 121 118 120 119 120 119 120 119 121 121 120 120 120 119 119 120 121 120 118 117 120 120 120 120 120 121 120 121 122 120 121 121 121 120 120 120 118 120
134 133 133 133 134 132 132 130 131 132 132 129 130 129 129 129 129 127 127 126 125 127 127 127 126 125 124 124 125 127 126 126 127 122 124 123 126 119 122 124 120 122 125 125 122 122 122 123 120 121 122 121 120 120 122 123 122 120 122 122 123 124 120 122 120 121 120 121 123 119 121 123 121 121 121 120 121 120 120 121 120 120 120 122 121 121 121 122 120 122 120 122 122 120 121 121 119 121 119 119 121 121 121 122 120 118 119 123 122 120 119 118 118 122 119 119 121 121 119 121 120 120 120 119 121 121 121 121 120 119 119 119 120 121 121 120 121 123 121 120 120 120 118 119 119 121
